-1182.000000 -367.069709 -284.378733
-1182.000000 -367.170173 -282.381257
-1182.000000 -367.270638 -280.383782
-1182.000000 -367.371103 -278.386307
-1182.000000 -367.471568 -276.388832
-1182.000000 -367.572032 -274.391357
-1182.000000 -367.672497 -272.393882
-1182.000000 -367.772962 -270.396407
-1182.000000 -367.873427 -268.398932
-1182.000000 -367.973891 -266.401457
-1182.000000 -368.074356 -264.403981
-1182.000000 -368.174821 -262.406506
-1182.000000 -368.275285 -260.409031
-1182.000000 -368.375750 -258.411556
-1182.000000 -368.476215 -256.414081
-1182.000000 -368.576680 -254.416606
-1182.000000 -368.677144 -252.419131
-1182.000000 -368.777609 -250.421656
-1182.000000 -368.878074 -248.424181
-1182.000000 -368.978538 -246.426705
-1182.000000 -369.079003 -244.429230
-1182.000000 -369.179468 -242.431755
-1182.000000 -369.279933 -240.434280
-1182.000000 -369.380397 -238.436805
-1182.000000 -369.480862 -236.439330
-1182.000000 -369.581327 -234.441855
-1182.000000 -369.681792 -232.444380
-1182.000000 -369.782256 -230.446904
-1182.000000 -369.882721 -228.449429
-1182.000000 -369.983186 -226.451954
-1182.000000 -370.083650 -224.454479
-1182.000000 -370.184115 -222.457004
-1182.000000 -370.284580 -220.459529
-1182.000000 -370.385045 -218.462054
-1182.000000 -370.485509 -216.464579
-1182.000000 -370.585974 -214.467104
-1182.000000 -370.686439 -212.469628
-1182.000000 -370.786904 -210.472153
-1182.000000 -370.887368 -208.474678
-1182.000000 -370.987833 -206.477203
-1182.000000 -371.088298 -204.479728
-1182.000000 -371.188762 -202.482253
-1182.000000 -371.289227 -200.484778
-1182.000000 -371.389692 -198.487303
-1182.000000 -371.490157 -196.489827
-1182.000000 -371.590621 -194.492352
-1182.000000 -371.691086 -192.494877
-1182.000000 -371.791551 -190.497402
-1182.000000 -371.892016 -188.499927
-1182.000000 -371.992480 -186.502452
-1182.000000 -372.092945 -184.504977
-1182.000000 -372.193410 -182.507502
-1182.000000 -372.293874 -180.510027
-1182.000000 -372.394339 -178.512551
-1182.000000 -372.494804 -176.515076
-1182.000000 -372.595269 -174.517601
-1182.000000 -372.695733 -172.520126
-1182.000000 -372.796198 -170.522651
-1182.000000 -372.896663 -168.525176
-1182.000000 -372.997127 -166.527701
-1182.000000 -373.097592 -164.530226
-1182.000000 -373.198057 -162.532751
-1182.000000 -373.298522 -160.535275
-1182.000000 -373.398986 -158.537800
-1182.000000 -373.499451 -156.540325
-1182.000000 -373.599916 -154.542850
-1182.000000 -373.700381 -152.545375
-1182.000000 -373.800845 -150.547900
-1182.000000 -373.901310 -148.550425
-1182.000000 -374.001775 -146.552950
-1182.000000 -374.102239 -144.555474
-1182.000000 -374.202704 -142.557999
-1182.000000 -374.303169 -140.560524
-1182.000000 -374.403634 -138.563049
-1182.000000 -374.504098 -136.565574
-1182.000000 -374.604563 -134.568099
-1182.000000 -374.705028 -132.570624
-1182.000000 -374.805493 -130.573149
-1182.000000 -374.905957 -128.575674
-1182.000000 -375.006422 -126.578198
-1182.000000 -375.106887 -124.580723
-1182.000000 -375.207351 -122.583248
-1182.000000 -375.307816 -120.585773
-1182.000000 -375.408281 -118.588298
-1182.000000 -375.508746 -116.590823
-1182.000000 -375.609210 -114.593348
-1182.000000 -375.709675 -112.595873
-1182.000000 -375.810140 -110.598398
-1182.000000 -375.910604 -108.600922
-1182.000000 -376.011069 -106.603447
-1182.000000 -376.111534 -104.605972
-1182.000000 -376.211999 -102.608497
-1182.000000 -376.312463 -100.611022
-1182.000000 -376.412928 -98.613547
-1182.000000 -376.513393 -96.616072
-1182.000000 -376.613858 -94.618597
-1182.000000 -376.714322 -92.621121
-1182.000000 -376.814787 -90.623646
-1182.000000 -376.915252 -88.626171
-1182.000000 -377.015716 -86.628696
-1182.000000 -377.116181 -84.631221
-1182.000000 -377.216646 -82.633746
-1182.000000 -377.317111 -80.636271
-1182.000000 -377.417575 -78.638796
-1182.000000 -377.518040 -76.641321
-1182.000000 -377.618505 -74.643845
-1182.000000 -377.718970 -72.646370
-1182.000000 -377.819434 -70.648895
-1182.000000 -377.919899 -68.651420
-1182.000000 -378.020364 -66.653945
-1182.000000 -378.120828 -64.656470
-1182.000000 -378.221293 -62.658995
-1182.000000 -378.321758 -60.661520
-1182.000000 -378.422223 -58.664044
-1182.000000 -378.522687 -56.666569
-1182.000000 -378.623152 -54.669094
-1182.000000 -378.723617 -52.671619
-1182.000000 -378.824082 -50.674144
-1182.000000 -378.924546 -48.676669
-1182.000000 -379.025011 -46.679194
-1182.000000 -379.125476 -44.681719
-1182.000000 -379.225940 -42.684244
-1182.000000 -379.326405 -40.686768
-1182.000000 -379.426870 -38.689293
-1182.000000 -379.527335 -36.691818
-1182.000000 -379.627799 -34.694343
-1182.000000 -379.728264 -32.696868
-1182.000000 -379.828729 -30.699393
-1182.000000 -379.929193 -28.701918
-1182.000000 -380.029658 -26.704443
-1182.000000 -380.130123 -24.706968
-1182.000000 -380.230588 -22.709492
-1182.000000 -380.331052 -20.712017
-1182.000000 -380.431517 -18.714542
-1182.000000 -380.531982 -16.717067
-1182.000000 -380.632447 -14.719592
-1182.000000 -380.732911 -12.722117
-1182.000000 -380.833376 -10.724642
-1182.000000 -380.933841 -8.727167
-1182.000000 -381.034305 -6.729691
-1182.000000 -381.134770 -4.732216
-1182.000000 -381.235235 -2.734741
-1182.000000 -381.335700 -0.737266
-1182.000000 -381.436164 1.260209
-1182.000000 -381.536629 3.257684
-1182.000000 -381.637094 5.255159
-1182.000000 -381.737559 7.252634
-1182.000000 -381.838023 9.250109
-1182.000000 -381.938488 11.247585
-1182.000000 -382.038953 13.245060
-1182.000000 -382.139417 15.242535
-1182.000000 -382.239882 17.240010
-1182.000000 -382.340347 19.237485
-1182.000000 -382.440812 21.234960
-1182.000000 -382.541276 23.232435
-1182.000000 -382.641741 25.229910
-1182.000000 -382.742206 27.227385
-1182.000000 -382.842671 29.224861
-1182.000000 -382.943135 31.222336
-1182.000000 -383.043600 33.219811
-1182.000000 -383.144065 35.217286
-1182.000000 -383.244529 37.214761
-1182.000000 -383.344994 39.212236
-1182.000000 -383.445459 41.209711
-1182.000000 -383.545924 43.207186
-1182.000000 -383.646388 45.204662
-1182.000000 -383.746853 47.202137
-1182.000000 -383.847318 49.199612
-1182.000000 -383.947782 51.197087
-1182.000000 -384.048247 53.194562
-1182.000000 -384.148712 55.192037
-1182.000000 -384.249177 57.189512
-1182.000000 -384.349641 59.186987
-1182.000000 -384.450106 61.184462
-1182.000000 -384.550571 63.181938
-1182.000000 -384.651036 65.179413
-1182.000000 -384.751500 67.176888
-1182.000000 -384.851965 69.174363
-1182.000000 -384.952430 71.171838
-1182.000000 -385.052894 73.169313
-1182.000000 -385.153359 75.166788
-1182.000000 -385.253824 77.164263
-1182.000000 -385.354289 79.161739
-1182.000000 -385.454753 81.159214
-1182.000000 -385.555218 83.156689
-1182.000000 -385.655683 85.154164
-1182.000000 -385.756148 87.151639
-1182.000000 -385.856612 89.149114
-1182.000000 -385.957077 91.146589
-1182.000000 -386.057542 93.144064
-1182.000000 -386.158006 95.141539
-1182.000000 -386.258471 97.139015
-1182.000000 -386.358936 99.136490
-1182.000000 -386.459401 101.133965
-1182.000000 -386.559865 103.131440
-1182.000000 -386.660330 105.128915
-1182.000000 -386.760795 107.126390
-1182.000000 -386.861259 109.123865
-1182.000000 -386.961724 111.121340
-1182.000000 -387.062189 113.118815
-1182.000000 -387.162654 115.116291
-1182.000000 -387.263118 117.113766
-1182.000000 -387.363583 119.111241
-1182.000000 -387.464048 121.108716
-1182.000000 -387.564513 123.106191
-1182.000000 -387.664977 125.103666
-1182.000000 -387.765442 127.101141
-1182.000000 -387.865907 129.098616
-1182.000000 -387.966371 131.096092
-1182.000000 -388.066836 133.093567
-1182.000000 -388.167301 135.091042
-1182.000000 -388.267766 137.088517
-1182.000000 -388.368230 139.085992
-1182.000000 -388.468695 141.083467
-1182.000000 -388.569160 143.080942
-1182.000000 -388.669625 145.078417
-1182.000000 -388.770089 147.075892
-1182.000000 -388.870554 149.073368
-1182.000000 -388.971019 151.070843
-1182.000000 -389.071483 153.068318
-1182.000000 -389.171948 155.065793
-1182.000000 -389.272413 157.063268
-1182.000000 -389.372878 159.060743
-1182.000000 -389.473342 161.058218
-1182.000000 -389.573807 163.055693
-1182.000000 -389.674272 165.053169
-1182.000000 -389.774737 167.050644
-1182.000000 -389.875201 169.048119
-1182.000000 -389.975666 171.045594
-1182.000000 -390.076131 173.043069
-1182.000000 -390.176595 175.040544
-1182.000000 -390.277060 177.038019
-1182.000000 -390.377525 179.035494
-1182.000000 -390.477990 181.032969
-1182.000000 -390.578454 183.030445
-1182.000000 -390.678919 185.027920
-1182.000000 -390.779384 187.025395
-1182.000000 -390.879848 189.022870
-1182.000000 -390.980313 191.020345
-1182.000000 -391.080778 193.017820
-1182.000000 -391.181243 195.015295
-1182.000000 -391.281707 197.012770
-1182.000000 -391.382172 199.010245
-1182.000000 -391.482637 201.007721
-1182.000000 -391.583102 203.005196
-1182.000000 -391.683566 205.002671
-1182.000000 -391.784031 207.000146
-1182.000000 -391.884496 208.997621
-1182.000000 -391.984960 210.995096
-1182.000000 -392.085425 212.992571
-1182.000000 -392.185890 214.990046
-1182.000000 -392.286355 216.987522
-1182.000000 -392.386819 218.984997
-1182.000000 -392.487284 220.982472
-1182.000000 -392.587749 222.979947
-1182.000000 -392.688214 224.977422
-1182.000000 -392.788678 226.974897
-1182.000000 -392.889143 228.972372
-1182.000000 -392.989608 230.969847
-1182.000000 -393.090072 232.967322
-1182.000000 -393.190537 234.964798
-1182.000000 -393.291002 236.962273
-1182.000000 -393.391467 238.959748
-1182.000000 -393.491931 240.957223
-1182.000000 -393.592396 242.954698
-1182.000000 -393.692861 244.952173
-1182.000000 -393.793326 246.949648
-1182.000000 -393.893790 248.947123
-1182.000000 -393.994255 250.944598
-1182.000000 -394.094720 252.942074
-1182.000000 -394.195184 254.939549
-1182.000000 -394.295649 256.937024
-1182.000000 -394.396114 258.934499
-1182.000000 -394.496579 260.931974
-1182.000000 -394.597043 262.929449
-1182.000000 -394.697508 264.926924
-1182.000000 -394.797973 266.924399
-1182.000000 -394.898437 268.921875
-1182.000000 -394.998902 270.919350
-1182.000000 -395.099367 272.916825
-1182.000000 -395.199832 274.914300
-1182.000000 -395.300296 276.911775
-1182.000000 -395.400761 278.909250
-1182.000000 -395.501226 280.906725
-1182.000000 -395.601691 282.904200
-1182.000000 -395.702155 284.901675
-1182.000000 -395.802620 286.899151
-1182.000000 -395.903085 288.896626
-1182.000000 -396.003549 290.894101
-1182.000000 -396.104014 292.891576
-1182.000000 -396.204479 294.889051
-1182.000000 -396.304944 296.886526
-1182.000000 -396.405408 298.884001
-1182.000000 -396.505873 300.881476
-1182.000000 -396.606338 302.878952
-1182.000000 -396.706803 304.876427
-1182.000000 -396.807267 306.873902
-1182.000000 -396.907732 308.871377
-1182.000000 -397.008197 310.868852
-1182.000000 -397.108661 312.866327
-1182.000000 -397.209126 314.863802
-1182.000000 -397.309591 316.861277
-1182.000000 -397.410056 318.858752
-1182.000000 -397.510520 320.856228
-1182.000000 -397.610985 322.853703
-1182.000000 -397.711450 324.851178
-1182.000000 -397.811914 326.848653
-1182.000000 -397.912379 328.846128
-1182.000000 -398.012844 330.843603
-1182.000000 -398.113309 332.841078
-1182.000000 -398.213773 334.838553
-1182.000000 -398.314238 336.836028
-1182.000000 -398.414703 338.833504
-1182.000000 -398.515168 340.830979
-1182.000000 -398.615632 342.828454
-1182.000000 -398.716097 344.825929
-1182.000000 -398.816562 346.823404
-1182.000000 -398.917026 348.820879
-1182.000000 -399.017491 350.818354
-1182.000000 -399.117956 352.815829
-1182.000000 -399.218421 354.813305
-1182.000000 -399.318885 356.810780
-1182.000000 -399.419350 358.808255
-1182.000000 -399.519815 360.805730
-1182.000000 -399.620280 362.803205
-1182.000000 -399.720744 364.800680
-1182.000000 -399.821209 366.798155
-1182.000000 -399.921674 368.795630
-1182.000000 -400.022138 370.793105
-1182.000000 -400.122603 372.790581
-1182.000000 -400.223068 374.788056
-1182.000000 -400.323533 376.785531
-1182.000000 -400.423997 378.783006
-1182.000000 -400.524462 380.780481
-1182.000000 -400.624927 382.777956
-1182.000000 -400.725392 384.775431
-1182.000000 -400.825856 386.772906
-1182.000000 -400.926321 388.770381
-1182.000000 -401.026786 390.767857
-1182.000000 -401.127250 392.765332
-1182.000000 -401.227715 394.762807
-1182.000000 -401.328180 396.760282
-1182.000000 -401.428645 398.757757
-1182.000000 -401.529109 400.755232
-1182.000000 -401.629574 402.752707
-1182.000000 -401.730039 404.750182
-1182.000000 -401.830503 406.747658
-1182.000000 -401.930968 408.745133
-1182.000000 -402.031433 410.742608
-1182.000000 -402.131898 412.740083
-1182.000000 -402.232362 414.737558
-1182.000000 -402.332827 416.735033
-1182.000000 -402.433292 418.732508
-1182.000000 -402.533757 420.729983
-1182.000000 -402.634221 422.727458
-1182.000000 -402.734686 424.724934
-1182.000000 -402.835151 426.722409
-1182.000000 -402.935615 428.719884
-1182.000000 -403.036080 430.717359
-1182.000000 -403.136545 432.714834
-1182.000000 -403.237010 434.712309
-1182.000000 -403.337474 436.709784
-1182.000000 -403.437939 438.707259
-1182.000000 -403.538404 440.704735
-1182.000000 -403.638869 442.702210
-1182.000000 -403.739333 444.699685
-1182.000000 -403.839798 446.697160
-1182.000000 -403.940263 448.694635
-1182.000000 -404.040727 450.692110
-1182.000000 -404.141192 452.689585
-1182.000000 -404.241657 454.687060
-1182.000000 -404.342122 456.684535
-1182.000000 -404.442586 458.682011
-1182.000000 -404.543051 460.679486
-1182.000000 -404.643516 462.676961
-1182.000000 -404.743981 464.674436
-1182.000000 -404.844445 466.671911
-1182.000000 -404.944910 468.669386
-1182.000000 -405.045375 470.666861
-1182.000000 -405.145839 472.664336
-1182.000000 -405.246304 474.661811
-1182.000000 -405.346769 476.659287
-1182.000000 -405.447234 478.656762
-1182.000000 -405.547698 480.654237
-1182.000000 -405.648163 482.651712
-1182.000000 -405.748628 484.649187
-1182.000000 -405.849092 486.646662
-1182.000000 -405.949557 488.644137
-1182.000000 -406.050022 490.641612
-1182.000000 -406.150487 492.639088
-1182.000000 -406.250951 494.636563
-1182.000000 -406.351416 496.634038
-1182.000000 -406.451881 498.631513
-1182.000000 -406.552346 500.628988
-1182.000000 -406.652810 502.626463
-1182.000000 -406.753275 504.623938
-1182.000000 -406.853740 506.621413
-1182.000000 -406.954204 508.618888
-1182.000000 -407.054669 510.616364
-1182.000000 -407.155134 512.613839
-1182.000000 -407.255599 514.611314
-1182.000000 -407.356063 516.608789
-1182.000000 -407.456528 518.606264
-1182.000000 -407.556993 520.603739
-1182.000000 -407.657458 522.601214
-1182.000000 -407.757922 524.598689
-1182.000000 -407.858387 526.596165
-1182.000000 -407.958852 528.593640
-1182.000000 -408.059316 530.591115
-1182.000000 -408.159781 532.588590
-1182.000000 -408.260246 534.586065
-1182.000000 -408.360711 536.583540
-1182.000000 -408.461175 538.581015
-1182.000000 -408.561640 540.578490
-1182.000000 -408.662105 542.575965
-1182.000000 -408.762569 544.573441
-1182.000000 -408.863034 546.570916
-1182.000000 -408.963499 548.568391
-1182.000000 -409.063964 550.565866
-1182.000000 -409.164428 552.563341
-1182.000000 -409.264893 554.560816
-1182.000000 -409.365358 556.558291
-1182.000000 -409.465823 558.555766
-1182.000000 -409.566287 560.553241
-1182.000000 -409.666752 562.550717
-1182.000000 -409.767217 564.548192
-1182.000000 -409.867681 566.545667
-1182.000000 -409.968146 568.543142
-1182.000000 -410.068611 570.540617
-1182.000000 -410.169076 572.538092
-1182.000000 -410.269540 574.535567
-1182.000000 -410.370005 576.533042
-1182.000000 -410.470470 578.530518
-1182.000000 -410.570935 580.527993
-1182.000000 -410.671399 582.525468
-1182.000000 -410.771864 584.522943
-1182.000000 -410.872329 586.520418
-1182.000000 -410.972793 588.517893
-1182.000000 -411.073258 590.515368
-1182.000000 -411.173723 592.512843
-1182.000000 -411.274188 594.510318
-1182.000000 -411.374652 596.507794
-1182.000000 -411.475117 598.505269
-1182.000000 -411.575582 600.502744
-1182.000000 -411.676047 602.500219
-1182.000000 -411.776511 604.497694
-1182.000000 -411.876976 606.495169
-1182.000000 -411.977441 608.492644
-1182.000000 -412.077905 610.490119
-1182.000000 -412.178370 612.487594
-1182.000000 -412.278835 614.485070
-1182.000000 -412.379300 616.482545
-1182.000000 -412.479764 618.480020
-1182.000000 -412.580229 620.477495
-1182.000000 -412.680694 622.474970
-1182.000000 -412.781158 624.472445
-1182.000000 -412.881623 626.469920
-1182.000000 -412.982088 628.467395
-1182.000000 -413.082553 630.464871
-1182.000000 -413.183017 632.462346
-1182.000000 -413.283482 634.459821
-1182.000000 -413.383947 636.457296
-1182.000000 -413.484412 638.454771
-1182.000000 -413.584876 640.452246
-1182.000000 -413.685341 642.449721
-1182.000000 -413.785806 644.447196
-1182.000000 -413.886270 646.444671
-1182.000000 -413.986735 648.442147
-1182.000000 -414.087200 650.439622
-1182.000000 -414.187665 652.437097
-1182.000000 -414.288129 654.434572
-1182.000000 -414.388594 656.432047
-1182.000000 -414.489059 658.429522
-1182.000000 -414.589524 660.426997
-1182.000000 -414.689988 662.424472
-1182.000000 -414.790453 664.421948
-1182.000000 -414.890918 666.419423
-1182.000000 -414.991382 668.416898
-1182.000000 -415.091847 670.414373
-1182.000000 -415.192312 672.411848
-1182.000000 -415.292777 674.409323
-1182.000000 -415.393241 676.406798
-1182.000000 -415.493706 678.404273
-1182.000000 -415.594171 680.401748
-1182.000000 -415.694636 682.399224
-1182.000000 -415.795100 684.396699
-1182.000000 -415.895565 686.394174
-1182.000000 -415.996030 688.391649
-1182.000000 -416.096494 690.389124
-1182.000000 -416.196959 692.386599
-1182.000000 -416.297424 694.384074
-1182.000000 -416.397889 696.381549
-1182.000000 -416.498353 698.379024
-1182.000000 -416.598818 700.376500
-1182.000000 -416.699283 702.373975
-1182.000000 -416.799747 704.371450
-1182.000000 -416.900212 706.368925
-1182.000000 -417.000677 708.366400
-1182.000000 -417.101142 710.363875
-1182.000000 -417.201606 712.361350
-1182.000000 -417.302071 714.358825
-1182.000000 -417.402536 716.356301
-1182.000000 -417.503001 718.353776
-1182.000000 -417.603465 720.351251
-1182.000000 -417.703930 722.348726
-1182.000000 -417.804395 724.346201
-1182.000000 -417.904859 726.343676
-1182.000000 -418.005324 728.341151
-1182.000000 -418.105789 730.338626
-1182.000000 -418.206254 732.336101
-1182.000000 -418.306718 734.333577
-1182.000000 -418.407183 736.331052
-1182.000000 -418.507648 738.328527
-1182.000000 -418.608113 740.326002
-1182.000000 -418.708577 742.323477
-1182.000000 -418.809042 744.320952
-1182.000000 -418.909507 746.318427
-1182.000000 -419.009971 748.315902
-1182.000000 -419.110436 750.313377
-1182.000000 -419.210901 752.310853
-1182.000000 -419.311366 754.308328
-1182.000000 -419.411830 756.305803
-1182.000000 -419.512295 758.303278
-1182.000000 -419.612760 760.300753
-1182.000000 -419.713224 762.298228
-1182.000000 -419.813689 764.295703
-1182.000000 -420.000000 768.000000
-1183.377499 -418.550001 768.000000
-1184.754998 -417.100002 768.000000
-1186.132497 -415.650003 768.000000
-1187.509996 -414.200005 768.000000
-1188.887495 -412.750006 768.000000
-1190.264994 -411.300007 768.000000
-1191.642492 -409.850008 768.000000
-1193.019991 -408.400009 768.000000
-1194.397490 -406.950010 768.000000
-1195.774989 -405.500011 768.000000
-1197.152488 -404.050012 768.000000
-1198.529987 -402.600014 768.000000
-1199.907486 -401.150015 768.000000
-1201.284985 -399.700016 768.000000
-1202.662484 -398.250017 768.000000
-1204.039983 -396.800018 768.000000
-1205.417482 -395.350019 768.000000
-1206.794981 -393.900020 768.000000
-1208.172480 -392.450022 768.000000
-1209.549978 -391.000023 768.000000
-1210.927477 -389.550024 768.000000
-1212.304976 -388.100025 768.000000
-1213.682475 -386.650026 768.000000
-1215.059974 -385.200027 768.000000
-1216.437473 -383.750028 768.000000
-1217.814972 -382.300029 768.000000
-1219.192471 -380.850031 768.000000
-1220.569970 -379.400032 768.000000
-1221.947469 -377.950033 768.000000
-1223.324968 -376.500034 768.000000
-1224.702467 -375.050035 768.000000
-1226.079966 -373.600036 768.000000
-1227.457464 -372.150037 768.000000
-1228.834963 -370.700039 768.000000
-1230.212462 -369.250040 768.000000
-1231.589961 -367.800041 768.000000
-1232.967460 -366.350042 768.000000
-1234.344959 -364.900043 768.000000
-1235.722458 -363.450044 768.000000
-1237.099957 -362.000045 768.000000
-1238.477456 -360.550046 768.000000
-1239.854955 -359.100048 768.000000
-1241.232454 -357.650049 768.000000
-1242.609953 -356.200050 768.000000
-1243.987452 -354.750051 768.000000
-1245.364950 -353.300052 768.000000
-1246.742449 -351.850053 768.000000
-1248.119948 -350.400054 768.000000
-1249.497447 -348.950056 768.000000
-1250.874946 -347.500057 768.000000
-1252.252445 -346.050058 768.000000
-1253.629944 -344.600059 768.000000
-1255.007443 -343.150060 768.000000
-1256.384942 -341.700061 768.000000
-1257.762441 -340.250062 768.000000
-1259.139940 -338.800063 768.000000
-1260.517439 -337.350065 768.000000
-1261.894938 -335.900066 768.000000
-1263.272437 -334.450067 768.000000
-1264.649935 -333.000068 768.000000
-1266.027434 -331.550069 768.000000
-1267.404933 -330.100070 768.000000
-1268.782432 -328.650071 768.000000
-1270.159931 -327.200072 768.000000
-1271.537430 -325.750074 768.000000
-1272.914929 -324.300075 768.000000
-1274.292428 -322.850076 768.000000
-1275.669927 -321.400077 768.000000
-1277.047426 -319.950078 768.000000
-1278.424925 -318.500079 768.000000
-1279.802424 -317.050080 768.000000
-1281.179923 -315.600082 768.000000
-1282.557421 -314.150083 768.000000
-1283.934920 -312.700084 768.000000
-1285.312419 -311.250085 768.000000
-1286.689918 -309.800086 768.000000
-1288.067417 -308.350087 768.000000
-1289.444916 -306.900088 768.000000
-1290.822415 -305.450089 768.000000
-1292.199914 -304.000091 768.000000
-1293.577413 -302.550092 768.000000
-1294.954912 -301.100093 768.000000
-1296.332411 -299.650094 768.000000
-1297.709910 -298.200095 768.000000
-1299.087409 -296.750096 768.000000
-1300.464907 -295.300097 768.000000
-1301.842406 -293.850099 768.000000
-1303.219905 -292.400100 768.000000
-1304.597404 -290.950101 768.000000
-1305.974903 -289.500102 768.000000
-1307.352402 -288.050103 768.000000
-1308.729901 -286.600104 768.000000
-1310.107400 -285.150105 768.000000
-1311.484899 -283.700106 768.000000
-1312.862398 -282.250108 768.000000
-1314.239897 -280.800109 768.000000
-1315.617396 -279.350110 768.000000
-1316.994895 -277.900111 768.000000
-1318.372393 -276.450112 768.000000
-1319.749892 -275.000113 768.000000
-1321.127391 -273.550114 768.000000
-1322.504890 -272.100116 768.000000
-1323.882389 -270.650117 768.000000
-1325.259888 -269.200118 768.000000
-1326.637387 -267.750119 768.000000
-1328.014886 -266.300120 768.000000
-1329.392385 -264.850121 768.000000
-1330.769884 -263.400122 768.000000
-1332.147383 -261.950123 768.000000
-1333.524882 -260.500125 768.000000
-1334.902381 -259.050126 768.000000
-1336.279879 -257.600127 768.000000
-1337.657378 -256.150128 768.000000
-1339.034877 -254.700129 768.000000
-1340.412376 -253.250130 768.000000
-1341.789875 -251.800131 768.000000
-1343.167374 -250.350133 768.000000
-1344.544873 -248.900134 768.000000
-1345.922372 -247.450135 768.000000
-1347.299871 -246.000136 768.000000
-1348.677370 -244.550137 768.000000
-1350.054869 -243.100138 768.000000
-1351.432368 -241.650139 768.000000
-1352.809867 -240.200140 768.000000
-1354.187365 -238.750142 768.000000
-1355.564864 -237.300143 768.000000
-1356.942363 -235.850144 768.000000
-1358.319862 -234.400145 768.000000
-1359.697361 -232.950146 768.000000
-1361.074860 -231.500147 768.000000
-1362.452359 -230.050148 768.000000
-1363.829858 -228.600150 768.000000
-1365.207357 -227.150151 768.000000
-1366.584856 -225.700152 768.000000
-1367.962355 -224.250153 768.000000
-1369.339854 -222.800154 768.000000
-1370.717353 -221.350155 768.000000
-1372.094851 -219.900156 768.000000
-1373.472350 -218.450157 768.000000
-1374.849849 -217.000159 768.000000
-1376.227348 -215.550160 768.000000
-1377.604847 -214.100161 768.000000
-1378.982346 -212.650162 768.000000
-1380.359845 -211.200163 768.000000
-1381.737344 -209.750164 768.000000
-1383.114843 -208.300165 768.000000
-1384.492342 -206.850167 768.000000
-1385.869841 -205.400168 768.000000
-1387.247340 -203.950169 768.000000
-1388.624839 -202.500170 768.000000
-1390.002337 -201.050171 768.000000
-1391.379836 -199.600172 768.000000
-1392.757335 -198.150173 768.000000
-1394.134834 -196.700174 768.000000
-1395.512333 -195.250176 768.000000
-1396.889832 -193.800177 768.000000
-1398.267331 -192.350178 768.000000
-1399.644830 -190.900179 768.000000
-1401.022329 -189.450180 768.000000
-1402.399828 -188.000181 768.000000
-1403.777327 -186.550182 768.000000
-1405.154826 -185.100184 768.000000
-1406.532325 -183.650185 768.000000
-1407.909824 -182.200186 768.000000
-1409.287322 -180.750187 768.000000
-1410.664821 -179.300188 768.000000
-1412.042320 -177.850189 768.000000
-1413.419819 -176.400190 768.000000
-1414.797318 -174.950191 768.000000
-1416.174817 -173.500193 768.000000
-1417.552316 -172.050194 768.000000
-1418.929815 -170.600195 768.000000
-1420.307314 -169.150196 768.000000
-1421.684813 -167.700197 768.000000
-1423.062312 -166.250198 768.000000
-1424.439811 -164.800199 768.000000
-1425.817310 -163.350201 768.000000
-1427.194808 -161.900202 768.000000
-1428.572307 -160.450203 768.000000
-1429.949806 -159.000204 768.000000
-1431.327305 -157.550205 768.000000
-1432.704804 -156.100206 768.000000
-1434.082303 -154.650207 768.000000
-1435.459802 -153.200208 768.000000
-1436.837301 -151.750210 768.000000
-1438.214800 -150.300211 768.000000
-1439.592299 -148.850212 768.000000
-1440.969798 -147.400213 768.000000
-1442.347297 -145.950214 768.000000
-1443.724796 -144.500215 768.000000
-1445.102294 -143.050216 768.000000
-1446.479793 -141.600217 768.000000
-1447.857292 -140.150219 768.000000
-1449.234791 -138.700220 768.000000
-1450.612290 -137.250221 768.000000
-1451.989789 -135.800222 768.000000
-1453.367288 -134.350223 768.000000
-1454.744787 -132.900224 768.000000
-1456.122286 -131.450225 768.000000
-1457.499785 -130.000227 768.000000
-1458.877284 -128.550228 768.000000
-1460.254783 -127.100229 768.000000
-1461.632282 -125.650230 768.000000
-1463.009780 -124.200231 768.000000
-1464.387279 -122.750232 768.000000
-1465.764778 -121.300233 768.000000
-1467.142277 -119.850234 768.000000
-1468.519776 -118.400236 768.000000
-1469.897275 -116.950237 768.000000
-1471.274774 -115.500238 768.000000
-1472.652273 -114.050239 768.000000
-1474.029772 -112.600240 768.000000
-1475.407271 -111.150241 768.000000
-1476.784770 -109.700242 768.000000
-1478.162269 -108.250244 768.000000
-1479.539768 -106.800245 768.000000
-1480.917266 -105.350246 768.000000
-1482.294765 -103.900247 768.000000
-1483.672264 -102.450248 768.000000
-1485.049763 -101.000249 768.000000
-1486.427262 -99.550250 768.000000
-1487.804761 -98.100251 768.000000
-1489.182260 -96.650253 768.000000
-1490.559759 -95.200254 768.000000
-1491.937258 -93.750255 768.000000
-1493.314757 -92.300256 768.000000
-1494.692256 -90.850257 768.000000
-1496.069755 -89.400258 768.000000
-1497.447254 -87.950259 768.000000
-1498.824752 -86.500261 768.000000
-1500.202251 -85.050262 768.000000
-1501.579750 -83.600263 768.000000
-1502.957249 -82.150264 768.000000
-1504.334748 -80.700265 768.000000
-1505.712247 -79.250266 768.000000
-1507.089746 -77.800267 768.000000
-1508.467245 -76.350268 768.000000
-1509.844744 -74.900270 768.000000
-1511.222243 -73.450271 768.000000
-1512.599742 -72.000272 768.000000
-1513.977241 -70.550273 768.000000
-1515.354740 -69.100274 768.000000
-1516.732238 -67.650275 768.000000
-1518.109737 -66.200276 768.000000
-1519.487236 -64.750278 768.000000
-1520.864735 -63.300279 768.000000
-1522.242234 -61.850280 768.000000
-1524.000000 -60.000000 768.000000
-1524.000000 -60.000000 766.000000
-1524.000000 -60.000000 764.000000
-1524.000000 -60.000000 762.000000
-1524.000000 -60.000000 760.000000
-1524.000000 -60.000000 758.000000
-1524.000000 -60.000000 756.000000
-1524.000000 -60.000000 754.000000
-1524.000000 -60.000000 752.000000
-1524.000000 -60.000000 750.000000
-1524.000000 -60.000000 748.000000
-1524.000000 -60.000000 746.000000
-1524.000000 -60.000000 744.000000
-1524.000000 -60.000000 742.000000
-1524.000000 -60.000000 740.000000
-1524.000000 -60.000000 738.000000
-1524.000000 -60.000000 736.000000
-1524.000000 -60.000000 734.000000
-1524.000000 -60.000000 732.000000
-1524.000000 -60.000000 730.000000
-1524.000000 -60.000000 728.000000
-1524.000000 -60.000000 726.000000
-1524.000000 -60.000000 724.000000
-1524.000000 -60.000000 722.000000
-1524.000000 -60.000000 720.000000
-1524.000000 -60.000000 718.000000
-1524.000000 -60.000000 716.000000
-1524.000000 -60.000000 714.000000
-1524.000000 -60.000000 712.000000
-1524.000000 -60.000000 710.000000
-1524.000000 -60.000000 708.000000
-1524.000000 -60.000000 706.000000
-1524.000000 -60.000000 704.000000
-1524.000000 -60.000000 702.000000
-1524.000000 -60.000000 700.000000
-1524.000000 -60.000000 698.000000
-1524.000000 -60.000000 696.000000
-1524.000000 -60.000000 694.000000
-1524.000000 -60.000000 692.000000
-1524.000000 -60.000000 690.000000
-1524.000000 -60.000000 688.000000
-1524.000000 -60.000000 686.000000
-1524.000000 -60.000000 684.000000
-1524.000000 -60.000000 682.000000
-1524.000000 -60.000000 680.000000
-1524.000000 -60.000000 678.000000
-1524.000000 -60.000000 676.000000
-1524.000000 -60.000000 674.000000
-1524.000000 -60.000000 672.000000
-1524.000000 -60.000000 670.000000
-1524.000000 -60.000000 668.000000
-1524.000000 -60.000000 666.000000
-1524.000000 -60.000000 664.000000
-1524.000000 -60.000000 662.000000
-1524.000000 -60.000000 660.000000
-1524.000000 -60.000000 658.000000
-1524.000000 -60.000000 656.000000
-1524.000000 -60.000000 654.000000
-1524.000000 -60.000000 652.000000
-1524.000000 -60.000000 650.000000
-1524.000000 -60.000000 648.000000
-1524.000000 -60.000000 646.000000
-1524.000000 -60.000000 644.000000
-1524.000000 -60.000000 642.000000
-1524.000000 -60.000000 640.000000
-1524.000000 -60.000000 638.000000
-1524.000000 -60.000000 636.000000
-1524.000000 -60.000000 634.000000
-1524.000000 -60.000000 632.000000
-1524.000000 -60.000000 630.000000
-1524.000000 -60.000000 628.000000
-1524.000000 -60.000000 626.000000
-1524.000000 -60.000000 624.000000
-1524.000000 -60.000000 622.000000
-1524.000000 -60.000000 620.000000
-1524.000000 -60.000000 618.000000
-1524.000000 -60.000000 616.000000
-1524.000000 -60.000000 614.000000
-1524.000000 -60.000000 612.000000
-1524.000000 -60.000000 610.000000
-1524.000000 -60.000000 608.000000
-1524.000000 -60.000000 606.000000
-1524.000000 -60.000000 604.000000
-1524.000000 -60.000000 602.000000
-1524.000000 -60.000000 600.000000
-1524.000000 -60.000000 598.000000
-1524.000000 -60.000000 596.000000
-1524.000000 -60.000000 594.000000
-1524.000000 -60.000000 592.000000
-1524.000000 -60.000000 590.000000
-1524.000000 -60.000000 588.000000
-1524.000000 -60.000000 586.000000
-1524.000000 -60.000000 584.000000
-1524.000000 -60.000000 582.000000
-1524.000000 -60.000000 580.000000
-1524.000000 -60.000000 578.000000
-1524.000000 -60.000000 576.000000
-1524.000000 -60.000000 574.000000
-1524.000000 -60.000000 572.000000
-1524.000000 -60.000000 570.000000
-1524.000000 -60.000000 568.000000
-1524.000000 -60.000000 566.000000
-1524.000000 -60.000000 564.000000
-1524.000000 -60.000000 562.000000
-1524.000000 -60.000000 560.000000
-1524.000000 -60.000000 558.000000
-1524.000000 -60.000000 556.000000
-1524.000000 -60.000000 554.000000
-1524.000000 -60.000000 552.000000
-1524.000000 -60.000000 550.000000
-1524.000000 -60.000000 548.000000
-1524.000000 -60.000000 546.000000
-1524.000000 -60.000000 544.000000
-1524.000000 -60.000000 542.000000
-1524.000000 -60.000000 540.000000
-1524.000000 -60.000000 538.000000
-1524.000000 -60.000000 536.000000
-1524.000000 -60.000000 534.000000
-1524.000000 -60.000000 532.000000
-1524.000000 -60.000000 530.000000
-1524.000000 -60.000000 528.000000
-1524.000000 -60.000000 526.000000
-1524.000000 -60.000000 524.000000
-1524.000000 -60.000000 522.000000
-1524.000000 -60.000000 520.000000
-1524.000000 -60.000000 518.000000
-1524.000000 -60.000000 516.000000
-1524.000000 -60.000000 514.000000
-1524.000000 -60.000000 512.000000
-1524.000000 -60.000000 510.000000
-1524.000000 -60.000000 508.000000
-1524.000000 -60.000000 506.000000
-1524.000000 -60.000000 504.000000
-1524.000000 -60.000000 502.000000
-1524.000000 -60.000000 500.000000
-1524.000000 -60.000000 498.000000
-1524.000000 -60.000000 496.000000
-1524.000000 -60.000000 494.000000
-1524.000000 -60.000000 492.000000
-1524.000000 -60.000000 490.000000
-1524.000000 -60.000000 488.000000
-1524.000000 -60.000000 486.000000
-1524.000000 -60.000000 484.000000
-1524.000000 -60.000000 482.000000
-1524.000000 -60.000000 480.000000
-1524.000000 -60.000000 478.000000
-1524.000000 -60.000000 476.000000
-1524.000000 -60.000000 474.000000
-1524.000000 -60.000000 472.000000
-1524.000000 -60.000000 470.000000
-1524.000000 -60.000000 468.000000
-1524.000000 -60.000000 466.000000
-1524.000000 -60.000000 464.000000
-1524.000000 -60.000000 462.000000
-1524.000000 -60.000000 460.000000
-1524.000000 -60.000000 458.000000
-1524.000000 -60.000000 456.000000
-1524.000000 -60.000000 454.000000
-1524.000000 -60.000000 452.000000
-1524.000000 -60.000000 450.000000
-1524.000000 -60.000000 448.000000
-1524.000000 -60.000000 446.000000
-1524.000000 -60.000000 444.000000
-1524.000000 -60.000000 442.000000
-1524.000000 -60.000000 440.000000
-1524.000000 -60.000000 438.000000
-1524.000000 -60.000000 436.000000
-1524.000000 -60.000000 434.000000
-1524.000000 -60.000000 432.000000
-1524.000000 -60.000000 430.000000
-1524.000000 -60.000000 428.000000
-1524.000000 -60.000000 426.000000
-1524.000000 -60.000000 424.000000
-1524.000000 -60.000000 422.000000
-1524.000000 -60.000000 420.000000
-1524.000000 -60.000000 418.000000
-1524.000000 -60.000000 416.000000
-1524.000000 -60.000000 414.000000
-1524.000000 -60.000000 412.000000
-1524.000000 -60.000000 410.000000
-1524.000000 -60.000000 408.000000
-1524.000000 -60.000000 406.000000
-1524.000000 -60.000000 404.000000
-1524.000000 -60.000000 402.000000
-1524.000000 -60.000000 400.000000
-1524.000000 -60.000000 398.000000
-1524.000000 -60.000000 396.000000
-1524.000000 -60.000000 394.000000
-1524.000000 -60.000000 392.000000
-1524.000000 -60.000000 390.000000
-1524.000000 -60.000000 388.000000
-1524.000000 -60.000000 386.000000
-1524.000000 -60.000000 384.000000
-1524.000000 -60.000000 382.000000
-1524.000000 -60.000000 380.000000
-1524.000000 -60.000000 378.000000
-1524.000000 -60.000000 376.000000
-1524.000000 -60.000000 374.000000
-1524.000000 -60.000000 372.000000
-1524.000000 -60.000000 370.000000
-1524.000000 -60.000000 368.000000
-1524.000000 -60.000000 366.000000
-1524.000000 -60.000000 364.000000
-1524.000000 -60.000000 362.000000
-1524.000000 -60.000000 360.000000
-1524.000000 -60.000000 358.000000
-1524.000000 -60.000000 356.000000
-1524.000000 -60.000000 354.000000
-1524.000000 -60.000000 352.000000
-1524.000000 -60.000000 350.000000
-1524.000000 -60.000000 348.000000
-1524.000000 -60.000000 346.000000
-1524.000000 -60.000000 344.000000
-1524.000000 -60.000000 342.000000
-1524.000000 -60.000000 340.000000
-1524.000000 -60.000000 338.000000
-1524.000000 -60.000000 336.000000
-1524.000000 -60.000000 334.000000
-1524.000000 -60.000000 332.000000
-1524.000000 -60.000000 330.000000
-1524.000000 -60.000000 328.000000
-1524.000000 -60.000000 326.000000
-1524.000000 -60.000000 324.000000
-1524.000000 -60.000000 322.000000
-1524.000000 -60.000000 320.000000
-1524.000000 -60.000000 318.000000
-1524.000000 -60.000000 316.000000
-1524.000000 -60.000000 314.000000
-1524.000000 -60.000000 312.000000
-1524.000000 -60.000000 310.000000
-1524.000000 -60.000000 308.000000
-1524.000000 -60.000000 306.000000
-1524.000000 -60.000000 304.000000
-1524.000000 -60.000000 302.000000
-1524.000000 -60.000000 300.000000
-1524.000000 -60.000000 298.000000
-1524.000000 -60.000000 296.000000
-1524.000000 -60.000000 294.000000
-1524.000000 -60.000000 292.000000
-1524.000000 -60.000000 290.000000
-1524.000000 -60.000000 288.000000
-1524.000000 -60.000000 286.000000
-1524.000000 -60.000000 284.000000
-1524.000000 -60.000000 282.000000
-1524.000000 -60.000000 280.000000
-1524.000000 -60.000000 278.000000
-1524.000000 -60.000000 276.000000
-1524.000000 -60.000000 274.000000
-1524.000000 -60.000000 272.000000
-1524.000000 -60.000000 270.000000
-1524.000000 -60.000000 268.000000
-1524.000000 -60.000000 266.000000
-1524.000000 -60.000000 264.000000
-1524.000000 -60.000000 262.000000
-1524.000000 -60.000000 260.000000
-1524.000000 -60.000000 258.000000
-1524.000000 -60.000000 256.000000
-1524.000000 -60.000000 254.000000
-1524.000000 -60.000000 252.000000
-1524.000000 -60.000000 250.000000
-1524.000000 -60.000000 248.000000
-1524.000000 -60.000000 246.000000
-1524.000000 -60.000000 244.000000
-1524.000000 -60.000000 242.000000
-1524.000000 -60.000000 240.000000
-1524.000000 -60.000000 238.000000
-1524.000000 -60.000000 236.000000
-1524.000000 -60.000000 234.000000
-1524.000000 -60.000000 232.000000
-1524.000000 -60.000000 230.000000
-1524.000000 -60.000000 228.000000
-1524.000000 -60.000000 226.000000
-1524.000000 -60.000000 224.000000
-1524.000000 -60.000000 222.000000
-1524.000000 -60.000000 220.000000
-1524.000000 -60.000000 218.000000
-1524.000000 -60.000000 216.000000
-1524.000000 -60.000000 214.000000
-1524.000000 -60.000000 212.000000
-1524.000000 -60.000000 210.000000
-1524.000000 -60.000000 208.000000
-1524.000000 -60.000000 206.000000
-1524.000000 -60.000000 204.000000
-1524.000000 -60.000000 202.000000
-1524.000000 -60.000000 200.000000
-1524.000000 -60.000000 198.000000
-1524.000000 -60.000000 196.000000
-1524.000000 -60.000000 194.000000
-1524.000000 -60.000000 192.000000
-1524.000000 -60.000000 190.000000
-1524.000000 -60.000000 188.000000
-1524.000000 -60.000000 186.000000
-1524.000000 -60.000000 184.000000
-1524.000000 -60.000000 182.000000
-1524.000000 -60.000000 180.000000
-1524.000000 -60.000000 178.000000
-1524.000000 -60.000000 176.000000
-1524.000000 -60.000000 174.000000
-1524.000000 -60.000000 172.000000
-1524.000000 -60.000000 170.000000
-1524.000000 -60.000000 168.000000
-1524.000000 -60.000000 166.000000
-1524.000000 -60.000000 164.000000
-1524.000000 -60.000000 162.000000
-1524.000000 -60.000000 160.000000
-1524.000000 -60.000000 158.000000
-1524.000000 -60.000000 156.000000
-1524.000000 -60.000000 154.000000
-1524.000000 -60.000000 152.000000
-1524.000000 -60.000000 150.000000
-1524.000000 -60.000000 148.000000
-1524.000000 -60.000000 146.000000
-1524.000000 -60.000000 144.000000
-1524.000000 -60.000000 142.000000
-1524.000000 -60.000000 140.000000
-1524.000000 -60.000000 138.000000
-1524.000000 -60.000000 136.000000
-1524.000000 -60.000000 134.000000
-1524.000000 -60.000000 132.000000
-1524.000000 -60.000000 130.000000
-1524.000000 -60.000000 128.000000
-1524.000000 -60.000000 126.000000
-1524.000000 -60.000000 124.000000
-1524.000000 -60.000000 122.000000
-1524.000000 -60.000000 120.000000
-1524.000000 -60.000000 118.000000
-1524.000000 -60.000000 116.000000
-1524.000000 -60.000000 114.000000
-1524.000000 -60.000000 112.000000
-1524.000000 -60.000000 110.000000
-1524.000000 -60.000000 108.000000
-1524.000000 -60.000000 106.000000
-1524.000000 -60.000000 104.000000
-1524.000000 -60.000000 102.000000
-1524.000000 -60.000000 100.000000
-1524.000000 -60.000000 98.000000
-1524.000000 -60.000000 96.000000
-1524.000000 -60.000000 94.000000
-1524.000000 -60.000000 92.000000
-1524.000000 -60.000000 90.000000
-1524.000000 -60.000000 88.000000
-1524.000000 -60.000000 86.000000
-1524.000000 -60.000000 84.000000
-1524.000000 -60.000000 82.000000
-1524.000000 -60.000000 80.000000
-1524.000000 -60.000000 78.000000
-1524.000000 -60.000000 76.000000
-1524.000000 -60.000000 74.000000
-1524.000000 -60.000000 72.000000
-1524.000000 -60.000000 70.000000
-1524.000000 -60.000000 68.000000
-1524.000000 -60.000000 66.000000
-1524.000000 -60.000000 64.000000
-1524.000000 -60.000000 62.000000
-1524.000000 -60.000000 60.000000
-1524.000000 -60.000000 58.000000
-1524.000000 -60.000000 56.000000
-1524.000000 -60.000000 54.000000
-1524.000000 -60.000000 52.000000
-1524.000000 -60.000000 50.000000
-1524.000000 -60.000000 48.000000
-1524.000000 -60.000000 46.000000
-1524.000000 -60.000000 44.000000
-1524.000000 -60.000000 42.000000
-1524.000000 -60.000000 40.000000
-1524.000000 -60.000000 38.000000
-1524.000000 -60.000000 36.000000
-1524.000000 -60.000000 34.000000
-1524.000000 -60.000000 32.000000
-1524.000000 -60.000000 30.000000
-1524.000000 -60.000000 28.000000
-1524.000000 -60.000000 26.000000
-1524.000000 -60.000000 24.000000
-1524.000000 -60.000000 22.000000
-1524.000000 -60.000000 20.000000
-1524.000000 -60.000000 18.000000
-1524.000000 -60.000000 16.000000
-1524.000000 -60.000000 14.000000
-1524.000000 -60.000000 12.000000
-1524.000000 -60.000000 10.000000
-1524.000000 -60.000000 8.000000
-1524.000000 -60.000000 6.000000
-1524.000000 -60.000000 4.000000
-1524.000000 -60.000000 2.000000
-1524.000000 -60.000000 0.000000
-1524.000000 -60.000000 -2.000000
-1524.000000 -60.000000 -4.000000
-1524.000000 -60.000000 -6.000000
-1524.000000 -60.000000 -8.000000
-1524.000000 -60.000000 -10.000000
-1524.000000 -60.000000 -12.000000
-1524.000000 -60.000000 -14.000000
-1524.000000 -60.000000 -16.000000
-1524.000000 -60.000000 -18.000000
-1524.000000 -60.000000 -20.000000
-1524.000000 -60.000000 -22.000000
-1524.000000 -60.000000 -24.000000
-1524.000000 -60.000000 -26.000000
-1524.000000 -60.000000 -28.000000
-1524.000000 -60.000000 -30.000000
-1524.000000 -60.000000 -32.000000
-1524.000000 -60.000000 -34.000000
-1524.000000 -60.000000 -36.000000
-1524.000000 -60.000000 -38.000000
-1524.000000 -60.000000 -40.000000
-1524.000000 -60.000000 -42.000000
-1524.000000 -60.000000 -44.000000
-1524.000000 -60.000000 -46.000000
-1524.000000 -60.000000 -48.000000
-1524.000000 -60.000000 -50.000000
-1524.000000 -60.000000 -52.000000
-1524.000000 -60.000000 -54.000000
-1524.000000 -60.000000 -56.000000
-1524.000000 -60.000000 -58.000000
-1524.000000 -60.000000 -60.000000
-1524.000000 -60.000000 -62.000000
-1524.000000 -60.000000 -64.000000
-1524.000000 -60.000000 -66.000000
-1524.000000 -60.000000 -68.000000
-1524.000000 -60.000000 -70.000000
-1524.000000 -60.000000 -72.000000
-1524.000000 -60.000000 -74.000000
-1524.000000 -60.000000 -76.000000
-1524.000000 -60.000000 -78.000000
-1524.000000 -60.000000 -80.000000
-1524.000000 -60.000000 -82.000000
-1524.000000 -60.000000 -84.000000
-1524.000000 -60.000000 -86.000000
-1524.000000 -60.000000 -88.000000
-1524.000000 -60.000000 -90.000000
-1524.000000 -60.000000 -92.000000
-1524.000000 -60.000000 -94.000000
-1524.000000 -60.000000 -96.000000
-1524.000000 -60.000000 -98.000000
-1524.000000 -60.000000 -100.000000
-1524.000000 -60.000000 -102.000000
-1524.000000 -60.000000 -104.000000
-1524.000000 -60.000000 -106.000000
-1524.000000 -60.000000 -108.000000
-1524.000000 -60.000000 -110.000000
-1524.000000 -60.000000 -112.000000
-1524.000000 -60.000000 -114.000000
-1524.000000 -60.000000 -116.000000
-1524.000000 -60.000000 -118.000000
-1524.000000 -60.000000 -120.000000
-1524.000000 -60.000000 -122.000000
-1524.000000 -60.000000 -124.000000
-1524.000000 -60.000000 -126.000000
-1524.000000 -60.000000 -128.000000
-1524.000000 -60.000000 -130.000000
-1524.000000 -60.000000 -132.000000
-1524.000000 -60.000000 -134.000000
-1524.000000 -60.000000 -136.000000
-1524.000000 -60.000000 -138.000000
-1524.000000 -60.000000 -140.000000
-1524.000000 -60.000000 -142.000000
-1524.000000 -60.000000 -144.000000
-1524.000000 -60.000000 -146.000000
-1524.000000 -60.000000 -148.000000
-1524.000000 -60.000000 -150.000000
-1524.000000 -60.000000 -152.000000
-1524.000000 -60.000000 -154.000000
-1524.000000 -60.000000 -156.000000
-1524.000000 -60.000000 -158.000000
-1524.000000 -60.000000 -160.000000
-1524.000000 -60.000000 -162.000000
-1524.000000 -60.000000 -164.000000
-1524.000000 -60.000000 -166.000000
-1524.000000 -60.000000 -168.000000
-1524.000000 -60.000000 -170.000000
-1524.000000 -60.000000 -172.000000
-1524.000000 -60.000000 -174.000000
-1524.000000 -60.000000 -176.000000
-1524.000000 -60.000000 -178.000000
-1524.000000 -60.000000 -180.000000
-1524.000000 -60.000000 -182.000000
-1524.000000 -60.000000 -184.000000
-1524.000000 -60.000000 -186.000000
-1524.000000 -60.000000 -188.000000
-1524.000000 -60.000000 -190.000000
-1524.000000 -60.000000 -192.000000
-1524.000000 -60.000000 -194.000000
-1524.000000 -60.000000 -196.000000
-1524.000000 -60.000000 -198.000000
-1524.000000 -60.000000 -200.000000
-1524.000000 -60.000000 -202.000000
-1524.000000 -60.000000 -204.000000
-1524.000000 -60.000000 -206.000000
-1524.000000 -60.000000 -208.000000
-1524.000000 -60.000000 -210.000000
-1524.000000 -60.000000 -212.000000
-1524.000000 -60.000000 -214.000000
-1524.000000 -60.000000 -216.000000
-1524.000000 -60.000000 -218.000000
-1524.000000 -60.000000 -220.000000
-1524.000000 -60.000000 -222.000000
-1524.000000 -60.000000 -224.000000
-1524.000000 -60.000000 -226.000000
-1524.000000 -60.000000 -228.000000
-1524.000000 -60.000000 -230.000000
-1524.000000 -60.000000 -232.000000
-1524.000000 -60.000000 -234.000000
-1524.000000 -60.000000 -236.000000
-1524.000000 -60.000000 -238.000000
-1524.000000 -60.000000 -240.000000
-1524.000000 -60.000000 -242.000000
-1524.000000 -60.000000 -244.000000
-1524.000000 -60.000000 -246.000000
-1524.000000 -60.000000 -248.000000
-1524.000000 -60.000000 -250.000000
-1524.000000 -60.000000 -252.000000
-1524.000000 -60.000000 -254.000000
-1524.000000 -60.000000 -256.000000
-1524.000000 -60.000000 -258.000000
-1524.000000 -60.000000 -260.000000
-1524.000000 -60.000000 -262.000000
-1524.000000 -60.000000 -264.000000
-1524.000000 -60.000000 -266.000000
-1524.000000 -60.000000 -268.000000
-1524.000000 -60.000000 -270.000000
-1524.000000 -60.000000 -272.000000
-1524.000000 -60.000000 -274.000000
-1524.000000 -60.000000 -276.000000
-1524.000000 -60.000000 -278.000000
-1524.000000 -60.000000 -280.000000
-1524.000000 -60.000000 -282.000000
-1524.000000 -60.000000 -284.000000
-1524.000000 -60.000000 -286.000000
-1524.000000 -60.000000 -288.000000
-1524.000000 -60.000000 -290.000000
-1524.000000 -60.000000 -292.000000
-1524.000000 -60.000000 -294.000000
-1524.000000 -60.000000 -296.000000
-1524.000000 -60.000000 -298.000000
-1524.000000 -60.000000 -300.000000
-1524.000000 -60.000000 -302.000000
-1524.000000 -60.000000 -304.000000
-1524.000000 -60.000000 -306.000000
-1524.000000 -60.000000 -308.000000
-1524.000000 -60.000000 -310.000000
-1524.000000 -60.000000 -312.000000
-1524.000000 -60.000000 -314.000000
-1524.000000 -60.000000 -316.000000
-1524.000000 -60.000000 -318.000000
-1524.000000 -60.000000 -320.000000
-1524.000000 -60.000000 -322.000000
-1524.000000 -60.000000 -324.000000
-1524.000000 -60.000000 -326.000000
-1524.000000 -60.000000 -328.000000
-1524.000000 -60.000000 -330.000000
-1524.000000 -60.000000 -332.000000
-1524.000000 -60.000000 -334.000000
-1524.000000 -60.000000 -336.000000
-1524.000000 -60.000000 -338.000000
-1524.000000 -60.000000 -340.000000
-1524.000000 -60.000000 -342.000000
-1524.000000 -60.000000 -344.000000
-1524.000000 -60.000000 -346.000000
-1524.000000 -60.000000 -348.000000
-1524.000000 -60.000000 -350.000000
-1524.000000 -60.000000 -352.000000
-1524.000000 -60.000000 -354.000000
-1524.000000 -60.000000 -356.000000
-1524.000000 -60.000000 -358.000000
-1524.000000 -60.000000 -360.000000
-1524.000000 -60.000000 -362.000000
-1524.000000 -60.000000 -364.000000
-1524.000000 -60.000000 -366.000000
-1524.000000 -60.000000 -368.000000
-1524.000000 -60.000000 -370.000000
-1524.000000 -60.000000 -372.000000
-1524.000000 -60.000000 -374.000000
