-1574.310000 -280.000000 -408.000000
-1575.279534 -281.724543 -407.706817
-1576.249069 -283.449085 -407.413634
-1577.218603 -285.173628 -407.120451
-1578.188137 -286.898170 -406.827268
-1579.157672 -288.622713 -406.534085
-1580.127206 -290.347255 -406.240902
-1581.096740 -292.071798 -405.947719
-1582.066275 -293.796340 -405.654536
-1583.035809 -295.520883 -405.361353
-1584.005343 -297.245425 -405.068170
-1584.974877 -298.969968 -404.774987
-1585.944412 -300.694510 -404.481804
-1586.913946 -302.419053 -404.188621
-1587.883480 -304.143595 -403.895438
-1588.853015 -305.868138 -403.602255
-1589.822549 -307.592681 -403.309072
-1590.792083 -309.317223 -403.015889
-1591.761618 -311.041766 -402.722706
-1592.731152 -312.766308 -402.429523
-1593.700686 -314.490851 -402.136340
-1594.670221 -316.215393 -401.843157
-1595.639755 -317.939936 -401.549974
-1596.609289 -319.664478 -401.256791
-1597.578824 -321.389021 -400.963609
-1598.548358 -323.113563 -400.670426
-1599.517892 -324.838106 -400.377243
-1600.487427 -326.562648 -400.084060
-1601.456961 -328.287191 -399.790877
-1602.426495 -330.011733 -399.497694
-1603.396030 -331.736276 -399.204511
-1604.365564 -333.460819 -398.911328
-1605.335098 -335.185361 -398.618145
-1606.304632 -336.909904 -398.324962
-1607.274167 -338.634446 -398.031779
-1608.243701 -340.358989 -397.738596
-1609.213235 -342.083531 -397.445413
-1610.182770 -343.808074 -397.152230
-1611.152304 -345.532616 -396.859047
-1612.121838 -347.257159 -396.565864
-1613.091373 -348.981701 -396.272681
-1614.060907 -350.706244 -395.979498
-1615.030441 -352.430786 -395.686315
-1615.999976 -354.155329 -395.393132
-1616.969510 -355.879871 -395.099949
-1617.939044 -357.604414 -394.806766
-1618.908579 -359.328957 -394.513583
-1619.878113 -361.053499 -394.220400
-1620.847647 -362.778042 -393.927217
-1621.817182 -364.502584 -393.634034
-1622.786716 -366.227127 -393.340851
-1623.756250 -367.951669 -393.047668
-1624.725785 -369.676212 -392.754485
-1625.695319 -371.400754 -392.461302
-1627.220811 -374.114197 -392.000000
-1629.035020 -373.811828 -391.214369
-1630.849230 -373.509460 -390.428737
-1632.663440 -373.207092 -389.643106
-1634.477650 -372.904724 -388.857475
-1636.291859 -372.602355 -388.071843
-1638.106069 -372.299987 -387.286212
-1639.920279 -371.997619 -386.500581
-1641.734488 -371.695250 -385.714950
-1643.548698 -371.392882 -384.929318
-1645.694715 -371.035213 -384.000000
-1646.467585 -370.690140 -382.187930
-1647.240455 -370.345068 -380.375860
-1648.013325 -369.999996 -378.563790
-1648.786195 -369.654923 -376.751721
-1649.559065 -369.309851 -374.939651
-1650.331935 -368.964779 -373.127581
-1651.104805 -368.619707 -371.315511
-1651.877675 -368.274634 -369.503441
-1652.650545 -367.929562 -367.691371
-1653.423415 -367.584490 -365.879302
-1654.196285 -367.239418 -364.067232
-1654.969155 -366.894345 -362.255162
-1655.742025 -366.549273 -360.443092
-1656.514895 -366.204201 -358.631022
-1657.287765 -365.859128 -356.818952
-1658.060635 -365.514056 -355.006883
-1658.833505 -365.168984 -353.194813
-1659.606375 -364.823912 -351.382743
-1660.379245 -364.478839 -349.570673
-1661.152115 -364.133767 -347.758603
-1661.924985 -363.788695 -345.946533
-1662.697855 -363.443623 -344.134464
-1663.470725 -363.098550 -342.322394
-1664.243595 -362.753478 -340.510324
-1665.016465 -362.408406 -338.698254
-1665.789335 -362.063333 -336.886184
-1666.562205 -361.718261 -335.074114
-1667.335075 -361.373189 -333.262045
-1668.107945 -361.028117 -331.449975
-1668.880815 -360.683044 -329.637905
-1669.653685 -360.337972 -327.825835
-1670.426555 -359.992900 -326.013765
-1671.199425 -359.647828 -324.201695
-1671.972295 -359.302755 -322.389626
-1672.745165 -358.957683 -320.577556
-1673.518035 -358.612611 -318.765486
-1674.290905 -358.267538 -316.953416
-1675.063775 -357.922466 -315.141346
-1675.836645 -357.577394 -313.329276
-1676.609515 -357.232322 -311.517207
-1677.382385 -356.887249 -309.705137
-1678.155255 -356.542177 -307.893067
-1678.928125 -356.197105 -306.080997
-1679.700995 -355.852033 -304.268927
-1680.473865 -355.506960 -302.456857
-1681.246735 -355.161888 -300.644787
-1682.019605 -354.816816 -298.832718
-1682.792475 -354.471743 -297.020648
-1683.565345 -354.126671 -295.208578
-1684.338215 -353.781599 -293.396508
-1685.111085 -353.436527 -291.584438
-1685.883955 -353.091454 -289.772368
-1686.656825 -352.746382 -287.960299
-1687.429695 -352.401310 -286.148229
-1688.202565 -352.056238 -284.336159
-1688.975435 -351.711165 -282.524089
-1689.748305 -351.366093 -280.712019
-1690.521175 -351.021021 -278.899949
-1691.294045 -350.675948 -277.087880
-1692.066915 -350.330876 -275.275810
-1692.839785 -349.985804 -273.463740
-1693.612655 -349.640732 -271.651670
-1694.385525 -349.295659 -269.839600
-1695.158395 -348.950587 -268.027530
-1695.931265 -348.605515 -266.215461
-1696.704135 -348.260442 -264.403391
-1697.477005 -347.915370 -262.591321
-1698.249875 -347.570298 -260.779251
-1699.022745 -347.225226 -258.967181
-1699.795615 -346.880153 -257.155111
-1700.568485 -346.535081 -255.343042
-1701.341355 -346.190009 -253.530972
-1702.114225 -345.844937 -251.718902
-1702.887095 -345.499864 -249.906832
-1703.659965 -345.154792 -248.094762
-1704.432835 -344.809720 -246.282692
-1705.205705 -344.464647 -244.470623
-1705.978575 -344.119575 -242.658553
-1706.751445 -343.774503 -240.846483
-1707.524315 -343.429431 -239.034413
-1708.297185 -343.084358 -237.222343
-1709.070055 -342.739286 -235.410273
-1709.842925 -342.394214 -233.598203
-1710.615795 -342.049142 -231.786134
-1711.388665 -341.704069 -229.974064
-1712.161535 -341.358997 -228.161994
-1712.934405 -341.013925 -226.349924
-1713.707275 -340.668852 -224.537854
-1714.480145 -340.323780 -222.725784
-1715.253015 -339.978708 -220.913715
-1716.025885 -339.633636 -219.101645
-1716.798755 -339.288563 -217.289575
-1717.571625 -338.943491 -215.477505
-1718.344495 -338.598419 -213.665435
-1719.117365 -338.253347 -211.853365
-1719.890235 -337.908274 -210.041296
-1720.663105 -337.563202 -208.229226
-1721.435975 -337.218130 -206.417156
-1722.208845 -336.873057 -204.605086
-1722.981715 -336.527985 -202.793016
-1723.754585 -336.182913 -200.980946
-1724.527455 -335.837841 -199.168877
-1725.300325 -335.492768 -197.356807
-1726.073195 -335.147696 -195.544737
-1726.846065 -334.802624 -193.732667
-1727.618935 -334.457552 -191.920597
-1728.391805 -334.112479 -190.108527
-1729.164675 -333.767407 -188.296458
-1729.937545 -333.422335 -186.484388
-1730.710415 -333.077262 -184.672318
-1731.483285 -332.732190 -182.860248
-1732.256155 -332.387118 -181.048178
-1733.029025 -332.042046 -179.236108
-1733.801895 -331.696973 -177.424039
-1734.574765 -331.351901 -175.611969
-1735.347635 -331.006829 -173.799899
-1736.120505 -330.661757 -171.987829
-1736.893375 -330.316684 -170.175759
-1737.666245 -329.971612 -168.363689
-1738.439115 -329.626540 -166.551620
-1739.211985 -329.281467 -164.739550
-1739.984855 -328.936395 -162.927480
-1740.757725 -328.591323 -161.115410
-1741.530595 -328.246251 -159.303340
-1742.303465 -327.901178 -157.491270
-1743.076335 -327.556106 -155.679200
-1743.849205 -327.211034 -153.867131
-1744.622075 -326.865962 -152.055061
-1745.394945 -326.520889 -150.242991
-1746.167815 -326.175817 -148.430921
-1746.940685 -325.830745 -146.618851
-1747.713555 -325.485672 -144.806781
-1748.486425 -325.140600 -142.994712
-1749.259295 -324.795528 -141.182642
-1750.032165 -324.450456 -139.370572
-1750.805035 -324.105383 -137.558502
-1751.577905 -323.760311 -135.746432
-1752.350775 -323.415239 -133.934362
-1753.123645 -323.070167 -132.122293
-1753.896515 -322.725094 -130.310223
-1754.669385 -322.380022 -128.498153
-1755.442255 -322.034950 -126.686083
-1756.215125 -321.689877 -124.874013
-1756.987995 -321.344805 -123.061943
-1757.760865 -320.999733 -121.249874
-1758.533735 -320.654661 -119.437804
-1760.000000 -320.000000 -116.000000
-1760.278583 -320.744975 -117.835049
-1760.557166 -321.489950 -119.670097
-1760.835749 -322.234925 -121.505146
-1761.114332 -322.979900 -123.340195
-1761.392915 -323.724875 -125.175243
-1761.671499 -324.469850 -127.010292
-1761.950082 -325.214825 -128.845341
-1762.228665 -325.959800 -130.680390
-1762.507248 -326.704775 -132.515438
-1762.785831 -327.449750 -134.350487
-1763.064414 -328.194725 -136.185536
-1763.342997 -328.939700 -138.020584
-1763.621580 -329.684675 -139.855633
-1763.900163 -330.429650 -141.690682
-1764.178746 -331.174625 -143.525730
-1764.457329 -331.919600 -145.360779
-1764.735912 -332.664575 -147.195828
-1765.014496 -333.409550 -149.030877
-1765.293079 -334.154525 -150.865925
-1765.571662 -334.899500 -152.700974
-1765.850245 -335.644475 -154.536023
-1766.128828 -336.389450 -156.371071
-1766.407411 -337.134425 -158.206120
-1766.685994 -337.879400 -160.041169
-1766.964577 -338.624375 -161.876217
-1767.243160 -339.369350 -163.711266
-1767.521743 -340.114325 -165.546315
-1767.800326 -340.859300 -167.381364
-1768.078909 -341.604275 -169.216412
-1768.357493 -342.349250 -171.051461
-1768.636076 -343.094225 -172.886510
-1768.914659 -343.839200 -174.721558
-1769.193242 -344.584175 -176.556607
-1769.471825 -345.329150 -178.391656
-1769.750408 -346.074125 -180.226704
-1770.028991 -346.819100 -182.061753
-1770.307574 -347.564075 -183.896802
-1770.586157 -348.309050 -185.731851
-1770.864740 -349.054025 -187.566899
-1771.143323 -349.799000 -189.401948
-1771.421907 -350.543975 -191.236997
-1771.700490 -351.288950 -193.072045
-1771.979073 -352.033925 -194.907094
-1772.257656 -352.778900 -196.742143
-1772.536239 -353.523875 -198.577191
-1772.814822 -354.268850 -200.412240
-1773.093405 -355.013825 -202.247289
-1773.371988 -355.758800 -204.082337
-1773.650571 -356.503775 -205.917386
-1773.929154 -357.248750 -207.752435
-1774.207737 -357.993725 -209.587484
-1774.486320 -358.738700 -211.422532
-1774.764904 -359.483675 -213.257581
-1775.043487 -360.228650 -215.092630
-1775.322070 -360.973625 -216.927678
-1775.600653 -361.718600 -218.762727
-1775.879236 -362.463575 -220.597776
-1776.157819 -363.208550 -222.432824
-1776.436402 -363.953525 -224.267873
-1776.714985 -364.698500 -226.102922
-1776.993568 -365.443475 -227.937971
-1777.272151 -366.188450 -229.773019
-1777.550734 -366.933425 -231.608068
-1777.829317 -367.678400 -233.443117
-1778.107901 -368.423375 -235.278165
-1778.386484 -369.168350 -237.113214
-1778.665067 -369.913325 -238.948263
-1778.943650 -370.658300 -240.783311
-1779.222233 -371.403275 -242.618360
-1779.500816 -372.148250 -244.453409
-1779.779399 -372.893225 -246.288458
-1780.057982 -373.638200 -248.123506
-1780.336565 -374.383175 -249.958555
-1780.615148 -375.128150 -251.793604
-1780.893731 -375.873125 -253.628652
-1781.172315 -376.618100 -255.463701
-1781.450898 -377.363075 -257.298750
-1781.729481 -378.108050 -259.133798
-1782.008064 -378.853025 -260.968847
-1782.286647 -379.597999 -262.803896
-1782.565230 -380.342974 -264.638945
-1782.843813 -381.087949 -266.473993
-1783.122396 -381.832924 -268.309042
-1783.400979 -382.577899 -270.144091
-1783.679562 -383.322874 -271.979139
-1783.958145 -384.067849 -273.814188
-1784.236728 -384.812824 -275.649237
-1784.515312 -385.557799 -277.484285
-1784.793895 -386.302774 -279.319334
-1785.072478 -387.047749 -281.154383
-1785.351061 -387.792724 -282.989431
-1785.629644 -388.537699 -284.824480
-1785.908227 -389.282674 -286.659529
-1786.186810 -390.027649 -288.494578
-1786.465393 -390.772624 -290.329626
-1786.743976 -391.517599 -292.164675
-1787.022559 -392.262574 -293.999724
-1787.301142 -393.007549 -295.834772
-1787.579726 -393.752524 -297.669821
-1787.858309 -394.497499 -299.504870
-1788.136892 -395.242474 -301.339918
-1788.415475 -395.987449 -303.174967
-1788.694058 -396.732424 -305.010016
-1788.972641 -397.477399 -306.845065
-1789.251224 -398.222374 -308.680113
-1789.529807 -398.967349 -310.515162
-1789.808390 -399.712324 -312.350211
-1790.086973 -400.457299 -314.185259
-1790.365556 -401.202274 -316.020308
-1790.644139 -401.947249 -317.855357
-1790.922723 -402.692224 -319.690405
-1791.201306 -403.437199 -321.525454
-1791.479889 -404.182174 -323.360503
-1791.758472 -404.927149 -325.195552
-1792.037055 -405.672124 -327.030600
-1792.315638 -406.417099 -328.865649
-1792.594221 -407.162074 -330.700698
-1792.872804 -407.907049 -332.535746
-1793.151387 -408.652024 -334.370795
-1793.429970 -409.396999 -336.205844
-1793.708553 -410.141974 -338.040892
-1793.987136 -410.886949 -339.875941
-1794.265720 -411.631924 -341.710990
-1794.544303 -412.376899 -343.546039
-1794.822886 -413.121874 -345.381087
-1795.101469 -413.866849 -347.216136
-1795.380052 -414.611824 -349.051185
-1795.658635 -415.356799 -350.886233
-1795.937218 -416.101774 -352.721282
-1796.215801 -416.846749 -354.556331
-1796.494384 -417.591724 -356.391379
-1796.772967 -418.336699 -358.226428
-1797.051550 -419.081674 -360.061477
-1797.330134 -419.826649 -361.896525
-1797.608717 -420.571624 -363.731574
-1797.887300 -421.316599 -365.566623
-1798.165883 -422.061574 -367.401672
-1798.444466 -422.806549 -369.236720
-1798.723049 -423.551524 -371.071769
-1799.001632 -424.296499 -372.906818
-1799.280215 -425.041474 -374.741866
-1799.558798 -425.786449 -376.576915
-1799.837381 -426.531424 -378.411964
-1800.115964 -427.276399 -380.247012
-1800.394547 -428.021374 -382.082061
