1192.000000 1232.000000 -560.000000
1191.455669 1233.360828 -558.639172
1190.911338 1234.721655 -557.278345
1190.367007 1236.082483 -555.917517
1189.822676 1237.443311 -554.556689
1189.278345 1238.804138 -553.195862
1188.734014 1240.164966 -551.835034
1188.189683 1241.525793 -550.474207
1187.645352 1242.886621 -549.113379
1187.101021 1244.247449 -547.752551
1186.556689 1245.608276 -546.391724
1186.012358 1246.969104 -545.030896
1185.468027 1248.329932 -543.670068
1184.923696 1249.690759 -542.309241
1184.000000 1252.000000 -540.000000
1182.012634 1251.787068 -539.929023
1180.025269 1251.574136 -539.858045
1178.037903 1251.361204 -539.787068
1176.050537 1251.148272 -539.716091
1174.063172 1250.935340 -539.645113
1172.075806 1250.722408 -539.574136
1170.088441 1250.509476 -539.503159
1168.101075 1250.296544 -539.432181
1166.113709 1250.083612 -539.361204
1164.126344 1249.870680 -539.290227
1162.138978 1249.657748 -539.219249
1160.151612 1249.444816 -539.148272
1158.164247 1249.231884 -539.077295
1156.176881 1249.018952 -539.006317
1154.189515 1248.806020 -538.935340
1152.202150 1248.593087 -538.864362
1150.214784 1248.380155 -538.793385
1148.227419 1248.167223 -538.722408
1146.240053 1247.954291 -538.651430
1144.252687 1247.741359 -538.580453
1142.265322 1247.528427 -538.509476
1140.277956 1247.315495 -538.438498
1138.290590 1247.102563 -538.367521
1136.303225 1246.889631 -538.296544
1134.315859 1246.676699 -538.225566
1132.328493 1246.463767 -538.154589
1130.341128 1246.250835 -538.083612
1128.353762 1246.037903 -538.012634
1126.366397 1245.824971 -537.941657
1124.379031 1245.612039 -537.870680
1122.391665 1245.399107 -537.799702
1120.404300 1245.186175 -537.728725
1118.416934 1244.973243 -537.657748
1116.429568 1244.760311 -537.586770
1114.442203 1244.547379 -537.515793
1112.454837 1244.334447 -537.444816
1110.467472 1244.121515 -537.373838
1108.480106 1243.908583 -537.302861
1106.492740 1243.695651 -537.231884
1104.505375 1243.482719 -537.160906
1102.518009 1243.269787 -537.089929
1100.530643 1243.056855 -537.018952
1098.543278 1242.843923 -536.947974
1096.555912 1242.630991 -536.876997
1094.568546 1242.418059 -536.806020
1092.581181 1242.205127 -536.735042
1090.593815 1241.992194 -536.664065
1088.606450 1241.779262 -536.593087
1086.619084 1241.566330 -536.522110
1084.631718 1241.353398 -536.451133
1082.644353 1241.140466 -536.380155
1080.656987 1240.927534 -536.309178
1078.669621 1240.714602 -536.238201
1076.682256 1240.501670 -536.167223
1074.694890 1240.288738 -536.096246
1072.000000 1240.000000 -536.000000
1070.000000 1240.000000 -536.000000
1068.000000 1240.000000 -536.000000
1066.000000 1240.000000 -536.000000
1064.000000 1240.000000 -536.000000
1062.000000 1240.000000 -536.000000
1060.000000 1240.000000 -536.000000
1058.000000 1240.000000 -536.000000
1056.000000 1240.000000 -536.000000
1054.000000 1240.000000 -536.000000
1052.000000 1240.000000 -536.000000
1050.000000 1240.000000 -536.000000
1048.000000 1240.000000 -536.000000
1046.000000 1240.000000 -536.000000
1044.000000 1240.000000 -536.000000
1042.000000 1240.000000 -536.000000
1040.000000 1240.000000 -536.000000
1038.000000 1240.000000 -536.000000
1036.000000 1240.000000 -536.000000
1034.000000 1240.000000 -536.000000
1032.000000 1240.000000 -536.000000
1030.000000 1240.000000 -536.000000
1028.000000 1240.000000 -536.000000
1026.000000 1240.000000 -536.000000
1024.000000 1240.000000 -536.000000
1022.000000 1240.000000 -536.000000
1020.000000 1240.000000 -536.000000
1018.000000 1240.000000 -536.000000
1016.000000 1240.000000 -536.000000
1014.000000 1240.000000 -536.000000
1012.000000 1240.000000 -536.000000
1010.000000 1240.000000 -536.000000
1008.000000 1240.000000 -536.000000
1006.000000 1240.000000 -536.000000
1004.000000 1240.000000 -536.000000
1002.000000 1240.000000 -536.000000
1000.000000 1240.000000 -536.000000
998.000000 1240.000000 -536.000000
996.000000 1240.000000 -536.000000
994.000000 1240.000000 -536.000000
992.000000 1240.000000 -536.000000
990.000000 1240.000000 -536.000000
988.000000 1240.000000 -536.000000
986.000000 1240.000000 -536.000000
984.000000 1240.000000 -536.000000
982.000000 1240.000000 -536.000000
980.000000 1240.000000 -536.000000
978.000000 1240.000000 -536.000000
976.000000 1240.000000 -536.000000
974.000000 1240.000000 -536.000000
972.000000 1240.000000 -536.000000
970.000000 1240.000000 -536.000000
968.000000 1240.000000 -536.000000
966.000000 1240.000000 -536.000000
964.000000 1240.000000 -536.000000
962.000000 1240.000000 -536.000000
960.000000 1240.000000 -536.000000
958.000000 1240.000000 -536.000000
956.000000 1240.000000 -536.000000
954.000000 1240.000000 -536.000000
952.000000 1240.000000 -536.000000
950.000000 1240.000000 -536.000000
948.000000 1240.000000 -536.000000
944.000000 1240.000000 -536.000000
942.143047 1240.742781 -536.000000
940.286093 1241.485563 -536.000000
938.429140 1242.228344 -536.000000
936.572186 1242.971125 -536.000000
934.715233 1243.713907 -536.000000
932.858280 1244.456688 -536.000000
931.001326 1245.199469 -536.000000
929.144373 1245.942251 -536.000000
927.287420 1246.685032 -536.000000
925.430466 1247.427814 -536.000000
923.573513 1248.170595 -536.000000
921.716559 1248.913376 -536.000000
919.859606 1249.656158 -536.000000
918.002653 1250.398939 -536.000000
916.145699 1251.141720 -536.000000
914.288746 1251.884502 -536.000000
912.431793 1252.627283 -536.000000
910.574839 1253.370064 -536.000000
908.717886 1254.112846 -536.000000
906.860932 1254.855627 -536.000000
905.003979 1255.598408 -536.000000
903.147026 1256.341190 -536.000000
901.290072 1257.083971 -536.000000
899.433119 1257.826752 -536.000000
897.576165 1258.569534 -536.000000
895.719212 1259.312315 -536.000000
893.862259 1260.055097 -536.000000
892.005305 1260.797878 -536.000000
890.148352 1261.540659 -536.000000
888.291399 1262.283441 -536.000000
886.434445 1263.026222 -536.000000
884.577492 1263.769003 -536.000000
882.720538 1264.511785 -536.000000
880.863585 1265.254566 -536.000000
879.006632 1265.997347 -536.000000
877.149678 1266.740129 -536.000000
875.292725 1267.482910 -536.000000
873.435771 1268.225691 -536.000000
871.578818 1268.968473 -536.000000
869.721865 1269.711254 -536.000000
867.864911 1270.454035 -536.000000
866.007958 1271.196817 -536.000000
864.000000 1272.000000 -536.000000
862.261087 1272.988019 -536.000000
860.522174 1273.976038 -536.000000
858.783261 1274.964056 -536.000000
857.044348 1275.952075 -536.000000
855.305434 1276.940094 -536.000000
853.566521 1277.928113 -536.000000
851.827608 1278.916132 -536.000000
850.088695 1279.904151 -536.000000
848.349782 1280.892169 -536.000000
846.610869 1281.880188 -536.000000
844.871956 1282.868207 -536.000000
843.133043 1283.856226 -536.000000
841.394130 1284.844245 -536.000000
839.655216 1285.832263 -536.000000
837.916303 1286.820282 -536.000000
836.177390 1287.808301 -536.000000
834.438477 1288.796320 -536.000000
832.699564 1289.784339 -536.000000
830.960651 1290.772357 -536.000000
829.221738 1291.760376 -536.000000
827.482825 1292.748395 -536.000000
825.743911 1293.736414 -536.000000
824.004998 1294.724433 -536.000000
822.266085 1295.712452 -536.000000
820.527172 1296.700470 -536.000000
818.788259 1297.688489 -536.000000
817.049346 1298.676508 -536.000000
815.310433 1299.664527 -536.000000
813.571520 1300.652546 -536.000000
811.832607 1301.640564 -536.000000
810.093693 1302.628583 -536.000000
808.354780 1303.616602 -536.000000
806.615867 1304.604621 -536.000000
804.876954 1305.592640 -536.000000
803.138041 1306.580659 -536.000000
801.399128 1307.568677 -536.000000
799.660215 1308.556696 -536.000000
797.921302 1309.544715 -536.000000
796.182389 1310.532734 -536.000000
794.443475 1311.520753 -536.000000
792.704562 1312.508771 -536.000000
790.965649 1313.496790 -536.000000
789.226736 1314.484809 -536.000000
787.487823 1315.472828 -536.000000
785.748910 1316.460847 -536.000000
784.009997 1317.448866 -536.000000
782.271084 1318.436884 -536.000000
780.532170 1319.424903 -536.000000
778.793257 1320.412922 -536.000000
777.054344 1321.400941 -536.000000
775.315431 1322.388960 -536.000000
773.576518 1323.376978 -536.000000
771.837605 1324.364997 -536.000000
770.098692 1325.353016 -536.000000
768.359779 1326.341035 -536.000000
766.620866 1327.329054 -536.000000
764.881952 1328.317072 -536.000000
763.143039 1329.305091 -536.000000
761.404126 1330.293110 -536.000000
759.665213 1331.281129 -536.000000
757.926300 1332.269148 -536.000000
756.187387 1333.257167 -536.000000
754.448474 1334.245185 -536.000000
752.709561 1335.233204 -536.000000
750.970648 1336.221223 -536.000000
749.231734 1337.209242 -536.000000
747.492821 1338.197261 -536.000000
745.753908 1339.185279 -536.000000
744.014995 1340.173298 -536.000000
742.276082 1341.161317 -536.000000
740.537169 1342.149336 -536.000000
738.798256 1343.137355 -536.000000
737.059343 1344.125374 -536.000000
735.320430 1345.113392 -536.000000
733.581516 1346.101411 -536.000000
731.842603 1347.089430 -536.000000
730.103690 1348.077449 -536.000000
728.364777 1349.065468 -536.000000
726.625864 1350.053486 -536.000000
724.886951 1351.041505 -536.000000
723.148038 1352.029524 -536.000000
721.409125 1353.017543 -536.000000
719.670211 1354.005562 -536.000000
717.931298 1354.993580 -536.000000
716.192385 1355.981599 -536.000000
714.453472 1356.969618 -536.000000
712.714559 1357.957637 -536.000000
710.975646 1358.945656 -536.000000
709.236733 1359.933675 -536.000000
707.497820 1360.921693 -536.000000
705.758907 1361.909712 -536.000000
704.019993 1362.897731 -536.000000
702.281080 1363.885750 -536.000000
700.542167 1364.873769 -536.000000
698.803254 1365.861787 -536.000000
697.064341 1366.849806 -536.000000
695.325428 1367.837825 -536.000000
693.586515 1368.825844 -536.000000
691.847602 1369.813863 -536.000000
690.108689 1370.801882 -536.000000
688.000000 1372.000000 -536.000000
687.451680 1371.872262 -534.080878
686.903359 1371.744523 -532.161757
686.355039 1371.616785 -530.242635
685.806718 1371.489047 -528.323514
685.258398 1371.361308 -526.404392
684.710077 1371.233570 -524.485271
684.161757 1371.105832 -522.566149
683.613436 1370.978093 -520.647027
683.065116 1370.850355 -518.727906
682.516796 1370.722617 -516.808784
681.968475 1370.594878 -514.889663
681.420155 1370.467140 -512.970541
680.871834 1370.339402 -511.051420
680.000000 1370.136297 -508.000000
678.020546 1369.850353 -508.000000
676.041093 1369.564410 -508.000000
674.061639 1369.278467 -508.000000
672.082186 1368.992524 -508.000000
670.102732 1368.706580 -508.000000
668.123279 1368.420637 -508.000000
666.143825 1368.134694 -508.000000
664.164371 1367.848750 -508.000000
662.184918 1367.562807 -508.000000
660.205464 1367.276864 -508.000000
658.226011 1366.990921 -508.000000
656.246557 1366.704977 -508.000000
654.267104 1366.419034 -508.000000
652.287650 1366.133091 -508.000000
650.308196 1365.847147 -508.000000
648.328743 1365.561204 -508.000000
646.349289 1365.275261 -508.000000
644.369836 1364.989317 -508.000000
642.390382 1364.703374 -508.000000
640.410929 1364.417431 -508.000000
638.431475 1364.131488 -508.000000
636.452021 1363.845544 -508.000000
634.472568 1363.559601 -508.000000
632.493114 1363.273658 -508.000000
630.513661 1362.987714 -508.000000
628.534207 1362.701771 -508.000000
626.554754 1362.415828 -508.000000
624.575300 1362.129885 -508.000000
622.595846 1361.843941 -508.000000
620.616393 1361.557998 -508.000000
618.636939 1361.272055 -508.000000
616.657486 1360.986111 -508.000000
614.678032 1360.700168 -508.000000
612.698579 1360.414225 -508.000000
610.719125 1360.128282 -508.000000
608.739671 1359.842338 -508.000000
606.760218 1359.556395 -508.000000
604.780764 1359.270452 -508.000000
602.801311 1358.984508 -508.000000
600.821857 1358.698565 -508.000000
598.842404 1358.412622 -508.000000
596.862950 1358.126679 -508.000000
594.883497 1357.840735 -508.000000
592.904043 1357.554792 -508.000000
590.924589 1357.268849 -508.000000
588.945136 1356.982905 -508.000000
586.965682 1356.696962 -508.000000
584.986229 1356.411019 -508.000000
583.006775 1356.125075 -508.000000
581.027322 1355.839132 -508.000000
579.047868 1355.553189 -508.000000
577.068414 1355.267246 -508.000000
575.088961 1354.981302 -508.000000
573.109507 1354.695359 -508.000000
571.130054 1354.409416 -508.000000
569.150600 1354.123472 -508.000000
567.171147 1353.837529 -508.000000
565.191693 1353.551586 -508.000000
563.212239 1353.265643 -508.000000
561.232786 1352.979699 -508.000000
559.253332 1352.693756 -508.000000
557.273879 1352.407813 -508.000000
555.294425 1352.121869 -508.000000
553.314972 1351.835926 -508.000000
551.335518 1351.549983 -508.000000
549.356064 1351.264040 -508.000000
547.376611 1350.978096 -508.000000
545.397157 1350.692153 -508.000000
543.417704 1350.406210 -508.000000
541.438250 1350.120266 -508.000000
539.458797 1349.834323 -508.000000
537.479343 1349.548380 -508.000000
535.499889 1349.262437 -508.000000
533.520436 1348.976493 -508.000000
531.540982 1348.690550 -508.000000
529.561529 1348.404607 -508.000000
527.582075 1348.118663 -508.000000
525.602622 1347.832720 -508.000000
523.623168 1347.546777 -508.000000
521.643714 1347.260833 -508.000000
519.664261 1346.974890 -508.000000
517.684807 1346.688947 -508.000000
515.705354 1346.403004 -508.000000
513.725900 1346.117060 -508.000000
511.746447 1345.831117 -508.000000
509.766993 1345.545174 -508.000000
507.787539 1345.259230 -508.000000
505.808086 1344.973287 -508.000000
503.828632 1344.687344 -508.000000
501.849179 1344.401401 -508.000000
499.869725 1344.115457 -508.000000
497.890272 1343.829514 -508.000000
495.910818 1343.543571 -508.000000
493.931364 1343.257627 -508.000000
491.951911 1342.971684 -508.000000
489.972457 1342.685741 -508.000000
487.993004 1342.399798 -508.000000
486.013550 1342.113854 -508.000000
484.034097 1341.827911 -508.000000
482.054643 1341.541968 -508.000000
480.075189 1341.256024 -508.000000
478.095736 1340.970081 -508.000000
476.116282 1340.684138 -508.000000
474.136829 1340.398195 -508.000000
472.157375 1340.112251 -508.000000
470.177922 1339.826308 -508.000000
468.198468 1339.540365 -508.000000
466.219014 1339.254421 -508.000000
464.239561 1338.968478 -508.000000
462.260107 1338.682535 -508.000000
460.280654 1338.396591 -508.000000
458.301200 1338.110648 -508.000000
456.321747 1337.824705 -508.000000
454.342293 1337.538762 -508.000000
452.362839 1337.252818 -508.000000
450.383386 1336.966875 -508.000000
448.403932 1336.680932 -508.000000
446.424479 1336.394988 -508.000000
444.445025 1336.109045 -508.000000
442.465572 1335.823102 -508.000000
440.486118 1335.537159 -508.000000
438.506664 1335.251215 -508.000000
436.527211 1334.965272 -508.000000
434.547757 1334.679329 -508.000000
432.568304 1334.393385 -508.000000
430.588850 1334.107442 -508.000000
428.609397 1333.821499 -508.000000
426.629943 1333.535556 -508.000000
424.650490 1333.249612 -508.000000
422.671036 1332.963669 -508.000000
420.691582 1332.677726 -508.000000
418.712129 1332.391782 -508.000000
416.000000 1332.000000 -508.000000
414.476812 1332.536334 -506.820066
412.953624 1333.072668 -505.640131
411.430436 1333.609001 -504.460197
409.907249 1334.145335 -503.280263
408.384061 1334.681669 -502.100329
406.860873 1335.218003 -500.920394
405.337685 1335.754336 -499.740460
403.814497 1336.290670 -498.560526
402.291309 1336.827004 -497.380592
400.768121 1337.363338 -496.200657
399.244934 1337.899671 -495.020723
397.721746 1338.436005 -493.840789
396.198558 1338.972339 -492.660855
394.675370 1339.508673 -491.480920
393.152182 1340.045006 -490.300986
391.628994 1340.581340 -489.121052
390.105806 1341.117674 -487.941118
388.582619 1341.654008 -486.761183
387.059431 1342.190341 -485.581249
385.536243 1342.726675 -484.401315
384.013055 1343.263009 -483.221381
382.489867 1343.799343 -482.041446
380.966679 1344.335676 -480.861512
379.443491 1344.872010 -479.681578
377.920304 1345.408344 -478.501644
376.397116 1345.944678 -477.321709
374.873928 1346.481011 -476.141775
373.350740 1347.017345 -474.961841
371.827552 1347.553679 -473.781907
370.304364 1348.090013 -472.601972
368.781176 1348.626346 -471.422038
367.257989 1349.162680 -470.242104
365.734801 1349.699014 -469.062170
364.211613 1350.235348 -467.882235
362.688425 1350.771681 -466.702301
361.165237 1351.308015 -465.522367
359.642049 1351.844349 -464.342432
358.118861 1352.380683 -463.162498
356.595673 1352.917016 -461.982564
355.072486 1353.453350 -460.802630
353.549298 1353.989684 -459.622695
352.026110 1354.526018 -458.442761
350.502922 1355.062351 -457.262827
348.979734 1355.598685 -456.082893
347.456546 1356.135019 -454.902958
345.933358 1356.671353 -453.723024
344.410171 1357.207686 -452.543090
342.886983 1357.744020 -451.363156
341.363795 1358.280354 -450.183221
339.840607 1358.816688 -449.003287
338.317419 1359.353021 -447.823353
336.794231 1359.889355 -446.643419
335.271043 1360.425689 -445.463484
333.747856 1360.962023 -444.283550
332.224668 1361.498356 -443.103616
330.701480 1362.034690 -441.923682
329.178292 1362.571024 -440.743747
327.655104 1363.107358 -439.563813
326.131916 1363.643691 -438.383879
324.608728 1364.180025 -437.203945
323.085541 1364.716359 -436.024010
321.562353 1365.252693 -434.844076
320.039165 1365.789026 -433.664142
318.515977 1366.325360 -432.484208
316.992789 1366.861694 -431.304273
315.469601 1367.398028 -430.124339
313.946413 1367.934361 -428.944405
312.423226 1368.470695 -427.764471
310.900038 1369.007029 -426.584536
309.376850 1369.543363 -425.404602
307.853662 1370.079696 -424.224668
306.330474 1370.616030 -423.044733
304.807286 1371.152364 -421.864799
303.284098 1371.688698 -420.684865
301.760911 1372.225031 -419.504931
300.237723 1372.761365 -418.324996
298.714535 1373.297699 -417.145062
297.191347 1373.834033 -415.965128
295.668159 1374.370367 -414.785194
294.144971 1374.906700 -413.605259
292.621783 1375.443034 -412.425325
291.098596 1375.979368 -411.245391
289.575408 1376.515702 -410.065457
288.052220 1377.052035 -408.885522
286.529032 1377.588369 -407.705588
285.005844 1378.124703 -406.525654
283.482656 1378.661037 -405.345720
281.959468 1379.197370 -404.165785
280.436281 1379.733704 -402.985851
278.913093 1380.270038 -401.805917
277.389905 1380.806372 -400.625983
275.866717 1381.342705 -399.446048
274.343529 1381.879039 -398.266114
272.820341 1382.415373 -397.086180
271.297153 1382.951707 -395.906246
269.773966 1383.488040 -394.726311
268.250778 1384.024374 -393.546377
266.727590 1384.560708 -392.366443
265.204402 1385.097042 -391.186509
263.681214 1385.633375 -390.006574
262.158026 1386.169709 -388.826640
260.634838 1386.706043 -387.646706
259.111651 1387.242377 -386.466772
257.588463 1387.778710 -385.286837
256.065275 1388.315044 -384.106903
254.542087 1388.851378 -382.926969
253.018899 1389.387712 -381.747034
251.495711 1389.924045 -380.567100
249.972523 1390.460379 -379.387166
248.449335 1390.996713 -378.207232
246.926148 1391.533047 -377.027297
245.402960 1392.069380 -375.847363
243.879772 1392.605714 -374.667429
242.356584 1393.142048 -373.487495
240.833396 1393.678382 -372.307560
239.310208 1394.214715 -371.127626
237.787020 1394.751049 -369.947692
236.263833 1395.287383 -368.767758
234.740645 1395.823717 -367.587823
233.217457 1396.360050 -366.407889
231.694269 1396.896384 -365.227955
230.171081 1397.432718 -364.048021
228.647893 1397.969052 -362.868086
227.124705 1398.505385 -361.688152
225.601518 1399.041719 -360.508218
224.078330 1399.578053 -359.328284
222.555142 1400.114387 -358.148349
221.031954 1400.650720 -356.968415
219.508766 1401.187054 -355.788481
217.985578 1401.723388 -354.608547
216.462390 1402.259722 -353.428612
214.939203 1402.796055 -352.248678
213.416015 1403.332389 -351.068744
211.892827 1403.868723 -349.888810
210.369639 1404.405057 -348.708875
208.846451 1404.941390 -347.528941
207.323263 1405.477724 -346.349007
205.800075 1406.014058 -345.169073
204.276888 1406.550392 -343.989138
202.753700 1407.086725 -342.809204
201.230512 1407.623059 -341.629270
199.707324 1408.159393 -340.449335
198.184136 1408.695727 -339.269401
196.660948 1409.232060 -338.089467
195.137760 1409.768394 -336.909533
193.614573 1410.304728 -335.729598
192.091385 1410.841062 -334.549664
190.568197 1411.377395 -333.369730
189.045009 1411.913729 -332.189796
187.521821 1412.450063 -331.009861
185.998633 1412.986397 -329.829927
184.475445 1413.522730 -328.649993
182.952258 1414.059064 -327.470059
181.429070 1414.595398 -326.290124
179.905882 1415.131732 -325.110190
178.382694 1415.668066 -323.930256
176.859506 1416.204399 -322.750322
175.336318 1416.740733 -321.570387
173.813130 1417.277067 -320.390453
172.289943 1417.813401 -319.210519
170.766755 1418.349734 -318.030585
169.243567 1418.886068 -316.850650
167.720379 1419.422402 -315.670716
166.197191 1419.958736 -314.490782
164.674003 1420.495069 -313.310848
163.150815 1421.031403 -312.130913
161.627628 1421.567737 -310.950979
160.104440 1422.104071 -309.771045
158.581252 1422.640404 -308.591111
157.058064 1423.176738 -307.411176
155.534876 1423.713072 -306.231242
154.011688 1424.249406 -305.051308
152.488500 1424.785739 -303.871374
150.965313 1425.322073 -302.691439
149.442125 1425.858407 -301.511505
147.918937 1426.394741 -300.331571
146.395749 1426.931074 -299.151636
144.872561 1427.467408 -297.971702
143.349373 1428.003742 -296.791768
141.826185 1428.540076 -295.611834
140.302997 1429.076409 -294.431899
138.779810 1429.612743 -293.251965
137.256622 1430.149077 -292.072031
135.733434 1430.685411 -290.892097
134.210246 1431.221744 -289.712162
