1417.740891 1668.000000 -841.526315
1416.275304 1668.000000 -842.887218
1414.809717 1668.000000 -844.248120
1413.344130 1668.000000 -845.609022
1411.878543 1668.000000 -846.969924
1410.412956 1668.000000 -848.330826
1408.947369 1668.000000 -849.691729
1407.481782 1668.000000 -851.052631
1406.016195 1668.000000 -852.413533
1404.550608 1668.000000 -853.774435
1403.085021 1668.000000 -855.135337
1401.619434 1668.000000 -856.496240
1400.000000 1668.000000 -858.000000
1399.105573 1669.788854 -858.000000
1398.211146 1671.577709 -858.000000
1397.316718 1673.366563 -858.000000
1396.422291 1675.155418 -858.000000
1395.527864 1676.944272 -858.000000
1394.633437 1678.733126 -858.000000
1393.739010 1680.521981 -858.000000
1392.000000 1684.000000 -858.000000
1391.756199 1684.261215 -856.032177
1391.512398 1684.522431 -854.064354
1391.268597 1684.783646 -852.096531
1391.024796 1685.044862 -850.128708
1390.780995 1685.306077 -848.160885
1390.537193 1685.567293 -846.193062
1390.293392 1685.828508 -844.225239
1390.049591 1686.089724 -842.257416
1389.805790 1686.350939 -840.289593
1389.561989 1686.612154 -838.321770
1389.318188 1686.873370 -836.353947
1389.074387 1687.134585 -834.386124
1388.830586 1687.395801 -832.418300
1388.586785 1687.657016 -830.450477
1388.342984 1687.918232 -828.482654
1388.099183 1688.179447 -826.514831
1387.855382 1688.440663 -824.547008
1387.611580 1688.701878 -822.579185
1387.367779 1688.963094 -820.611362
1387.123978 1689.224309 -818.643539
1386.880177 1689.485524 -816.675716
1386.636376 1689.746740 -814.707893
1386.392575 1690.007955 -812.740070
1386.148774 1690.269171 -810.772247
1385.904973 1690.530386 -808.804424
1385.661172 1690.791602 -806.836601
1385.417371 1691.052817 -804.868778
1385.173570 1691.314033 -802.900955
1384.929769 1691.575248 -800.933132
1384.685967 1691.836463 -798.965309
1384.442166 1692.097679 -796.997486
1384.198365 1692.358894 -795.029663
1383.954564 1692.620110 -793.061840
1383.710763 1692.881325 -791.094017
1383.466962 1693.142541 -789.126194
1383.223161 1693.403756 -787.158371
1382.979360 1693.664972 -785.190547
1382.735559 1693.926187 -783.222724
1382.491758 1694.187402 -781.254901
1382.247957 1694.448618 -779.287078
1382.004156 1694.709833 -777.319255
1381.760354 1694.971049 -775.351432
1381.516553 1695.232264 -773.383609
1381.272752 1695.493480 -771.415786
1381.028951 1695.754695 -769.447963
1380.785150 1696.015911 -767.480140
1380.541349 1696.277126 -765.512317
1380.297548 1696.538342 -763.544494
1380.053747 1696.799557 -761.576671
1379.809946 1697.060772 -759.608848
1379.566145 1697.321988 -757.641025
1379.322344 1697.583203 -755.673202
1379.078543 1697.844419 -753.705379
1378.834741 1698.105634 -751.737556
1378.590940 1698.366850 -749.769733
1378.347139 1698.628065 -747.801910
1378.103338 1698.889281 -745.834087
1377.859537 1699.150496 -743.866264
1377.615736 1699.411711 -741.898441
1377.371935 1699.672927 -739.930618
1377.128134 1699.934142 -737.962794
1376.884333 1700.195358 -735.994971
1376.640532 1700.456573 -734.027148
1376.396731 1700.717789 -732.059325
1376.152929 1700.979004 -730.091502
1375.909128 1701.240220 -728.123679
1375.665327 1701.501435 -726.155856
1375.421526 1701.762650 -724.188033
1375.177725 1702.023866 -722.220210
1374.933924 1702.285081 -720.252387
1374.690123 1702.546297 -718.284564
1374.446322 1702.807512 -716.316741
1374.202521 1703.068728 -714.348918
1373.958720 1703.329943 -712.381095
1373.714919 1703.591159 -710.413272
1373.471118 1703.852374 -708.445449
1373.227316 1704.113589 -706.477626
1372.983515 1704.374805 -704.509803
1372.739714 1704.636020 -702.541980
1372.495913 1704.897236 -700.574157
1372.252112 1705.158451 -698.606334
1372.008311 1705.419667 -696.638511
1371.764510 1705.680882 -694.670688
1371.520709 1705.942098 -692.702865
1371.276908 1706.203313 -690.735042
1371.033107 1706.464529 -688.767218
1370.789306 1706.725744 -686.799395
1370.545505 1706.986959 -684.831572
1370.301703 1707.248175 -682.863749
1370.057902 1707.509390 -680.895926
1369.814101 1707.770606 -678.928103
1369.570300 1708.031821 -676.960280
1369.326499 1708.293037 -674.992457
1369.082698 1708.554252 -673.024634
1368.838897 1708.815468 -671.056811
1368.595096 1709.076683 -669.088988
1368.351295 1709.337898 -667.121165
1368.107494 1709.599114 -665.153342
1367.863693 1709.860329 -663.185519
1367.619892 1710.121545 -661.217696
1367.376090 1710.382760 -659.249873
1367.132289 1710.643976 -657.282050
1366.888488 1710.905191 -655.314227
1366.644687 1711.166407 -653.346404
1366.400886 1711.427622 -651.378581
1366.157085 1711.688837 -649.410758
1365.913284 1711.950053 -647.442935
1365.669483 1712.211268 -645.475112
1365.425682 1712.472484 -643.507289
1365.181881 1712.733699 -641.539465
1364.938080 1712.994915 -639.571642
1364.694279 1713.256130 -637.603819
1364.450477 1713.517346 -635.635996
1364.000000 1714.000000 -632.000000
1362.933357 1714.305771 -630.336036
1361.866713 1714.611542 -628.672072
1360.800070 1714.917313 -627.008108
1359.733426 1715.223085 -625.344145
1358.666783 1715.528856 -623.680181
1357.600139 1715.834627 -622.016217
1356.533496 1716.140398 -620.352253
1355.466852 1716.446169 -618.688289
1354.400209 1716.751940 -617.024325
1353.333565 1717.057711 -615.360362
1352.266922 1717.363482 -613.696398
1351.200278 1717.669254 -612.032434
1350.133635 1717.975025 -610.368470
1349.066991 1718.280796 -608.704506
1348.000348 1718.586567 -607.040542
1346.933704 1718.892338 -605.376578
1345.867061 1719.198109 -603.712615
1344.800417 1719.503880 -602.048651
1343.733774 1719.809652 -600.384687
1342.667130 1720.115423 -598.720723
1341.600487 1720.421194 -597.056759
1340.533843 1720.726965 -595.392795
1339.467200 1721.032736 -593.728832
1338.400556 1721.338507 -592.064868
1337.333913 1721.644278 -590.400904
1336.267269 1721.950049 -588.736940
1335.200626 1722.255821 -587.072976
1334.133982 1722.561592 -585.409012
1333.067339 1722.867363 -583.745048
1332.000695 1723.173134 -582.081085
1330.934052 1723.478905 -580.417121
1329.867408 1723.784676 -578.753157
1328.800765 1724.090447 -577.089193
1327.734121 1724.396219 -575.425229
1326.667478 1724.701990 -573.761265
1325.600834 1725.007761 -572.097302
1324.534191 1725.313532 -570.433338
1323.467547 1725.619303 -568.769374
1322.400904 1725.925074 -567.105410
1321.334260 1726.230845 -565.441446
1320.267617 1726.536616 -563.777482
1319.200973 1726.842388 -562.113519
1318.134330 1727.148159 -560.449555
1317.067686 1727.453930 -558.785591
1316.001043 1727.759701 -557.121627
1314.934399 1728.065472 -555.457663
1313.867756 1728.371243 -553.793699
1312.801112 1728.677014 -552.129735
1311.734469 1728.982786 -550.465772
1310.667825 1729.288557 -548.801808
1309.601182 1729.594328 -547.137844
1308.534538 1729.900099 -545.473880
1307.467895 1730.205870 -543.809916
1306.401252 1730.511641 -542.145952
1305.334608 1730.817412 -540.481989
1304.267965 1731.123184 -538.818025
1303.201321 1731.428955 -537.154061
1302.134678 1731.734726 -535.490097
1301.068034 1732.040497 -533.826133
1300.001391 1732.346268 -532.162169
1298.934747 1732.652039 -530.498205
1297.868104 1732.957810 -528.834242
1296.801460 1733.263581 -527.170278
1295.734817 1733.569353 -525.506314
1294.668173 1733.875124 -523.842350
1293.601530 1734.180895 -522.178386
1292.534886 1734.486666 -520.514422
1291.468243 1734.792437 -518.850459
1290.401599 1735.098208 -517.186495
1289.334956 1735.403979 -515.522531
1288.268312 1735.709751 -513.858567
1287.201669 1736.015522 -512.194603
1286.135025 1736.321293 -510.530639
1285.068382 1736.627064 -508.866675
1284.001738 1736.932835 -507.202712
1282.935095 1737.238606 -505.538748
1281.868451 1737.544377 -503.874784
1280.801808 1737.850148 -502.210820
1279.735164 1738.155920 -500.546856
1278.668521 1738.461691 -498.882892
1277.601877 1738.767462 -497.218929
1276.535234 1739.073233 -495.554965
1275.468590 1739.379004 -493.891001
1274.401947 1739.684775 -492.227037
1273.335303 1739.990546 -490.563073
1272.268660 1740.296318 -488.899109
1271.202016 1740.602089 -487.235145
1270.135373 1740.907860 -485.571182
1269.068729 1741.213631 -483.907218
1268.002086 1741.519402 -482.243254
1266.935442 1741.825173 -480.579290
1265.868799 1742.130944 -478.915326
1264.802155 1742.436715 -477.251362
1263.735512 1742.742487 -475.587399
1262.668868 1743.048258 -473.923435
1261.602225 1743.354029 -472.259471
1260.535581 1743.659800 -470.595507
1259.468938 1743.965571 -468.931543
1258.402294 1744.271342 -467.267579
1257.335651 1744.577113 -465.603615
1256.269007 1744.882885 -463.939652
1255.202364 1745.188656 -462.275688
1254.135720 1745.494427 -460.611724
1253.069077 1745.800198 -458.947760
1252.002434 1746.105969 -457.283796
1250.935790 1746.411740 -455.619832
1249.869147 1746.717511 -453.955869
1248.802503 1747.023282 -452.291905
1247.735860 1747.329054 -450.627941
1246.669216 1747.634825 -448.963977
1245.602573 1747.940596 -447.300013
1244.535929 1748.246367 -445.636049
1243.469286 1748.552138 -443.972086
1242.402642 1748.857909 -442.308122
1241.335999 1749.163680 -440.644158
1240.269355 1749.469452 -438.980194
1239.202712 1749.775223 -437.316230
1238.136068 1750.080994 -435.652266
1237.069425 1750.386765 -433.988302
1236.002781 1750.692536 -432.324339
1234.936138 1750.998307 -430.660375
1233.869494 1751.304078 -428.996411
1232.802851 1751.609849 -427.332447
1231.736207 1751.915621 -425.668483
1230.669564 1752.221392 -424.004519
1229.602920 1752.527163 -422.340556
1228.536277 1752.832934 -420.676592
1227.469633 1753.138705 -419.012628
1226.402990 1753.444476 -417.348664
1225.336346 1753.750247 -415.684700
1224.269703 1754.056019 -414.020736
1223.203059 1754.361790 -412.356772
1222.136416 1754.667561 -410.692809
1221.069772 1754.973332 -409.028845
1220.003129 1755.279103 -407.364881
1218.936485 1755.584874 -405.700917
1217.869842 1755.890645 -404.036953
1216.803198 1756.196416 -402.372989
1215.736555 1756.502188 -400.709026
1214.669911 1756.807959 -399.045062
1213.603268 1757.113730 -397.381098
1212.536624 1757.419501 -395.717134
1211.469981 1757.725272 -394.053170
1210.403337 1758.031043 -392.389206
1209.336694 1758.336814 -390.725242
1208.270050 1758.642586 -389.061279
1207.203407 1758.948357 -387.397315
1206.136763 1759.254128 -385.733351
1205.070120 1759.559899 -384.069387
1204.003476 1759.865670 -382.405423
1202.936833 1760.171441 -380.741459
1201.870189 1760.477212 -379.077496
1200.803546 1760.782983 -377.413532
1199.736902 1761.088755 -375.749568
1198.670259 1761.394526 -374.085604
1197.603615 1761.700297 -372.421640
1196.536972 1762.006068 -370.757676
1195.470329 1762.311839 -369.093712
1194.403685 1762.617610 -367.429749
1193.337042 1762.923381 -365.765785
1192.270398 1763.229153 -364.101821
1191.203755 1763.534924 -362.437857
1190.137111 1763.840695 -360.773893
1189.070468 1764.146466 -359.109929
1188.003824 1764.452237 -357.445966
1186.937181 1764.758008 -355.782002
1185.870537 1765.063779 -354.118038
1184.803894 1765.369551 -352.454074
1183.737250 1765.675322 -350.790110
1182.670607 1765.981093 -349.126146
1181.603963 1766.286864 -347.462182
1180.537320 1766.592635 -345.798219
1179.470676 1766.898406 -344.134255
1178.404033 1767.204177 -342.470291
1177.337389 1767.509948 -340.806327
1176.270746 1767.815720 -339.142363
1175.204102 1768.121491 -337.478399
1174.137459 1768.427262 -335.814436
1173.070815 1768.733033 -334.150472
1172.004172 1769.038804 -332.486508
1170.937528 1769.344575 -330.822544
1169.870885 1769.650346 -329.158580
1168.804241 1769.956118 -327.494616
1167.737598 1770.261889 -325.830652
1166.670954 1770.567660 -324.166689
1165.604311 1770.873431 -322.502725
1164.537667 1771.179202 -320.838761
1163.471024 1771.484973 -319.174797
1162.404380 1771.790744 -317.510833
1161.337737 1772.096515 -315.846869
1160.271093 1772.402287 -314.182906
1159.204450 1772.708058 -312.518942
1158.137806 1773.013829 -310.854978
1157.071163 1773.319600 -309.191014
1156.004519 1773.625371 -307.527050
1154.937876 1773.931142 -305.863086
1153.871232 1774.236913 -304.199123
1152.804589 1774.542685 -302.535159
1151.737945 1774.848456 -300.871195
1150.671302 1775.154227 -299.207231
1149.604658 1775.459998 -297.543267
1148.538015 1775.765769 -295.879303
1147.471371 1776.071540 -294.215339
1146.404728 1776.377311 -292.551376
1145.338084 1776.683082 -290.887412
1144.271441 1776.988854 -289.223448
1143.204797 1777.294625 -287.559484
1142.138154 1777.600396 -285.895520
1141.071510 1777.906167 -284.231556
1140.004867 1778.211938 -282.567593
1138.938224 1778.517709 -280.903629
1137.871580 1778.823480 -279.239665
1136.804937 1779.129252 -277.575701
1135.738293 1779.435023 -275.911737
1134.671650 1779.740794 -274.247773
1133.605006 1780.046565 -272.583809
1132.538363 1780.352336 -270.919846
1131.471719 1780.658107 -269.255882
1130.405076 1780.963878 -267.591918
1129.338432 1781.269649 -265.927954
1128.271789 1781.575421 -264.263990
1127.205145 1781.881192 -262.600026
1126.138502 1782.186963 -260.936063
1125.071858 1782.492734 -259.272099
1124.005215 1782.798505 -257.608135
1122.938571 1783.104276 -255.944171
1121.871928 1783.410047 -254.280207
1120.805284 1783.715819 -252.616243
1119.738641 1784.021590 -250.952279
1118.671997 1784.327361 -249.288316
1117.605354 1784.633132 -247.624352
1116.538710 1784.938903 -245.960388
1115.472067 1785.244674 -244.296424
1114.405423 1785.550445 -242.632460
1113.338780 1785.856216 -240.968496
1112.272136 1786.161988 -239.304533
1111.205493 1786.467759 -237.640569
1110.138849 1786.773530 -235.976605
1109.072206 1787.079301 -234.312641
1108.005562 1787.385072 -232.648677
1106.938919 1787.690843 -230.984713
1105.872275 1787.996614 -229.320749
1104.805632 1788.302386 -227.656786
1103.738988 1788.608157 -225.992822
1102.672345 1788.913928 -224.328858
1101.605701 1789.219699 -222.664894
1100.539058 1789.525470 -221.000930
1099.472414 1789.831241 -219.336966
1098.405771 1790.137012 -217.673003
1097.339127 1790.442783 -216.009039
1096.272484 1790.748555 -214.345075
1095.205840 1791.054326 -212.681111
1094.139197 1791.360097 -211.017147
1093.072553 1791.665868 -209.353183
1092.005910 1791.971639 -207.689219
1090.939266 1792.277410 -206.025256
1089.872623 1792.583181 -204.361292
1088.805979 1792.888953 -202.697328
1087.739336 1793.194724 -201.033364
1086.672692 1793.500495 -199.369400
1085.606049 1793.806266 -197.705436
1084.539405 1794.112037 -196.041473
1083.472762 1794.417808 -194.377509
1082.406119 1794.723579 -192.713545
1081.339475 1795.029350 -191.049581
1080.272832 1795.335122 -189.385617
1079.206188 1795.640893 -187.721653
1078.139545 1795.946664 -186.057690
1077.072901 1796.252435 -184.393726
1076.006258 1796.558206 -182.729762
1074.939614 1796.863977 -181.065798
1073.872971 1797.169748 -179.401834
1072.806327 1797.475520 -177.737870
1071.739684 1797.781291 -176.073906
1070.673040 1798.087062 -174.409943
1069.606397 1798.392833 -172.745979
1068.539753 1798.698604 -171.082015
1067.473110 1799.004375 -169.418051
1066.406466 1799.310146 -167.754087
1065.339823 1799.615918 -166.090123
1064.000000 1800.000000 -164.000000
1062.972253 1798.323149 -163.636811
1061.944505 1796.646298 -163.273622
1060.916758 1794.969447 -162.910433
1059.889011 1793.292596 -162.547244
1058.861263 1791.615745 -162.184055
1057.833516 1789.938894 -161.820866
1056.805768 1788.262043 -161.457678
1055.778021 1786.585192 -161.094489
1054.750274 1784.908341 -160.731300
1053.722526 1783.231490 -160.368111
1052.694779 1781.554639 -160.004922
1051.667032 1779.877788 -159.641733
1050.639284 1778.200937 -159.278544
1049.611537 1776.524086 -158.915355
1048.583790 1774.847236 -158.552166
1047.556042 1773.170385 -158.188977
1046.528295 1771.493534 -157.825788
1045.500547 1769.816683 -157.462599
1044.472800 1768.139832 -157.099411
1043.445053 1766.462981 -156.736222
1042.417305 1764.786130 -156.373033
1041.389558 1763.109279 -156.009844
1040.361811 1761.432428 -155.646655
1039.334063 1759.755577 -155.283466
1038.306316 1758.078726 -154.920277
1037.278568 1756.401875 -154.557088
1036.250821 1754.725024 -154.193899
1035.223074 1753.048173 -153.830710
1034.195326 1751.371322 -153.467521
1033.167579 1749.694471 -153.104332
1032.139832 1748.017620 -152.741144
1031.112084 1746.340769 -152.377955
1030.084337 1744.663918 -152.014766
1029.056590 1742.987067 -151.651577
1028.028842 1741.310216 -151.288388
1027.001095 1739.633365 -150.925199
1025.973347 1737.956514 -150.562010
1024.945600 1736.279663 -150.198821
1023.917853 1734.602812 -149.835632
1022.890105 1732.925961 -149.472443
1021.862358 1731.249110 -149.109254
1020.834611 1729.572259 -148.746065
1019.806863 1727.895408 -148.382876
1018.779116 1726.218558 -148.019688
1017.751369 1724.541707 -147.656499
1016.723621 1722.864856 -147.293310
1015.695874 1721.188005 -146.930121
1014.668126 1719.511154 -146.566932
1013.640379 1717.834303 -146.203743
1012.612632 1716.157452 -145.840554
1011.584884 1714.480601 -145.477365
1010.557137 1712.803750 -145.114176
1009.529390 1711.126899 -144.750987
1008.501642 1709.450048 -144.387798
1007.473895 1707.773197 -144.024609
1006.446148 1706.096346 -143.661421
1005.418400 1704.419495 -143.298232
1004.390653 1702.742644 -142.935043
1003.362905 1701.065793 -142.571854
1002.335158 1699.388942 -142.208665
1001.307411 1697.712091 -141.845476
1000.279663 1696.035240 -141.482287
999.251916 1694.358389 -141.119098
998.224169 1692.681538 -140.755909
997.196421 1691.004687 -140.392720
996.168674 1689.327836 -140.029531
995.140926 1687.650985 -139.666342
994.113179 1685.974134 -139.303154
993.085432 1684.297283 -138.939965
992.057684 1682.620432 -138.576776
991.029937 1680.943581 -138.213587
990.002190 1679.266730 -137.850398
988.974442 1677.589880 -137.487209
987.946695 1675.913029 -137.124020
986.918948 1674.236178 -136.760831
985.891200 1672.559327 -136.397642
984.863453 1670.882476 -136.034453
983.835705 1669.205625 -135.671264
982.807958 1667.528774 -135.308075
981.780211 1665.851923 -134.944886
980.752463 1664.175072 -134.581698
979.724716 1662.498221 -134.218509
978.696969 1660.821370 -133.855320
977.669221 1659.144519 -133.492131
976.641474 1657.467668 -133.128942
975.613727 1655.790817 -132.765753
974.585979 1654.113966 -132.402564
973.558232 1652.437115 -132.039375
972.530484 1650.760264 -131.676186
971.502737 1649.083413 -131.312997
970.474990 1647.406562 -130.949808
969.447242 1645.729711 -130.586619
968.419495 1644.052860 -130.223431
967.391748 1642.376009 -129.860242
966.364000 1640.699158 -129.497053
965.336253 1639.022307 -129.133864
964.308505 1637.345456 -128.770675
963.280758 1635.668605 -128.407486
962.253011 1633.991754 -128.044297
961.225263 1632.314903 -127.681108
960.197516 1630.638052 -127.317919
959.169769 1628.961202 -126.954730
958.142021 1627.284351 -126.591541
957.114274 1625.607500 -126.228352
956.086527 1623.930649 -125.865164
955.058779 1622.253798 -125.501975
954.031032 1620.576947 -125.138786
953.003284 1618.900096 -124.775597
951.975537 1617.223245 -124.412408
950.947790 1615.546394 -124.049219
949.920042 1613.869543 -123.686030
948.892295 1612.192692 -123.322841
947.864548 1610.515841 -122.959652
946.836800 1608.838990 -122.596463
945.809053 1607.162139 -122.233274
944.781306 1605.485288 -121.870085
943.753558 1603.808437 -121.506896
942.725811 1602.131586 -121.143708
941.698063 1600.454735 -120.780519
940.670316 1598.777884 -120.417330
939.642569 1597.101033 -120.054141
938.614821 1595.424182 -119.690952
937.587074 1593.747331 -119.327763
936.559327 1592.070480 -118.964574
935.531579 1590.393629 -118.601385
934.503832 1588.716778 -118.238196
933.476085 1587.039927 -117.875007
932.448337 1585.363076 -117.511818
931.420590 1583.686225 -117.148629
930.392842 1582.009374 -116.785441
929.365095 1580.332524 -116.422252
928.337348 1578.655673 -116.059063
927.309600 1576.978822 -115.695874
926.281853 1575.301971 -115.332685
925.254106 1573.625120 -114.969496
924.226358 1571.948269 -114.606307
923.198611 1570.271418 -114.243118
922.170863 1568.594567 -113.879929
921.143116 1566.917716 -113.516740
920.115369 1565.240865 -113.153551
919.087621 1563.564014 -112.790362
918.059874 1561.887163 -112.427174
917.032127 1560.210312 -112.063985
916.004379 1558.533461 -111.700796
914.976632 1556.856610 -111.337607
913.948885 1555.179759 -110.974418
912.921137 1553.502908 -110.611229
911.893390 1551.826057 -110.248040
910.865642 1550.149206 -109.884851
909.837895 1548.472355 -109.521662
908.810148 1546.795504 -109.158473
907.782400 1545.118653 -108.795284
906.754653 1543.441802 -108.432095
905.726906 1541.764951 -108.068907
904.699158 1540.088100 -107.705718
903.671411 1538.411249 -107.342529
902.643664 1536.734398 -106.979340
901.615916 1535.057547 -106.616151
900.588169 1533.380696 -106.252962
899.560421 1531.703846 -105.889773
898.532674 1530.026995 -105.526584
897.504927 1528.350144 -105.163395
896.477179 1526.673293 -104.800206
895.449432 1524.996442 -104.437017
894.421685 1523.319591 -104.073828
893.393937 1521.642740 -103.710639
892.366190 1519.965889 -103.347451
891.338443 1518.289038 -102.984262
890.310695 1516.612187 -102.621073
889.282948 1514.935336 -102.257884
888.255200 1513.258485 -101.894695
887.227453 1511.581634 -101.531506
886.199706 1509.904783 -101.168317
885.171958 1508.227932 -100.805128
884.144211 1506.551081 -100.441939
883.116464 1504.874230 -100.078750
882.088716 1503.197379 -99.715561
881.060969 1501.520528 -99.352372
880.033221 1499.843677 -98.989184
879.005474 1498.166826 -98.625995
877.977727 1496.489975 -98.262806
876.949979 1494.813124 -97.899617
875.922232 1493.136273 -97.536428
874.894485 1491.459422 -97.173239
873.866737 1489.782571 -96.810050
872.838990 1488.105720 -96.446861
871.811243 1486.428869 -96.083672
870.783495 1484.752018 -95.720483
869.755748 1483.075167 -95.357294
868.728000 1481.398317 -94.994105
867.700253 1479.721466 -94.630917
866.672506 1478.044615 -94.267728
865.644758 1476.367764 -93.904539
864.617011 1474.690913 -93.541350
863.589264 1473.014062 -93.178161
862.561516 1471.337211 -92.814972
861.533769 1469.660360 -92.451783
860.506022 1467.983509 -92.088594
859.478274 1466.306658 -91.725405
858.450527 1464.629807 -91.362216
857.422779 1462.952956 -90.999027
856.395032 1461.276105 -90.635838
855.367285 1459.599254 -90.272649
854.339537 1457.922403 -89.909461
853.311790 1456.245552 -89.546272
852.284043 1454.568701 -89.183083
851.256295 1452.891850 -88.819894
850.228548 1451.214999 -88.456705
849.200801 1449.538148 -88.093516
848.173053 1447.861297 -87.730327
847.145306 1446.184446 -87.367138
846.117558 1444.507595 -87.003949
845.089811 1442.830744 -86.640760
844.062064 1441.153893 -86.277571
843.034316 1439.477042 -85.914382
842.006569 1437.800191 -85.551194
840.978822 1436.123340 -85.188005
839.951074 1434.446489 -84.824816
838.923327 1432.769639 -84.461627
837.895579 1431.092788 -84.098438
836.867832 1429.415937 -83.735249
835.840085 1427.739086 -83.372060
834.812337 1426.062235 -83.008871
833.784590 1424.385384 -82.645682
832.756843 1422.708533 -82.282493
831.729095 1421.031682 -81.919304
830.701348 1419.354831 -81.556115
829.673601 1417.677980 -81.192927
828.645853 1416.001129 -80.829738
827.618106 1414.324278 -80.466549
826.590358 1412.647427 -80.103360
825.562611 1410.970576 -79.740171
824.534864 1409.293725 -79.376982
823.507116 1407.616874 -79.013793
822.479369 1405.940023 -78.650604
821.451622 1404.263172 -78.287415
820.423874 1402.586321 -77.924226
819.396127 1400.909470 -77.561037
818.368380 1399.232619 -77.197848
817.340632 1397.555768 -76.834659
816.312885 1395.878917 -76.471471
815.285137 1394.202066 -76.108282
814.257390 1392.525215 -75.745093
813.229643 1390.848364 -75.381904
812.201895 1389.171513 -75.018715
811.174148 1387.494662 -74.655526
810.146401 1385.817811 -74.292337
809.118653 1384.140961 -73.929148
808.090906 1382.464110 -73.565959
807.063158 1380.787259 -73.202770
806.035411 1379.110408 -72.839581
805.007664 1377.433557 -72.476392
803.979916 1375.756706 -72.113204
802.952169 1374.079855 -71.750015
801.924422 1372.403004 -71.386826
800.896674 1370.726153 -71.023637
799.868927 1369.049302 -70.660448
798.841180 1367.372451 -70.297259
797.813432 1365.695600 -69.934070
796.785685 1364.018749 -69.570881
795.757937 1362.341898 -69.207692
794.730190 1360.665047 -68.844503
793.702443 1358.988196 -68.481314
792.674695 1357.311345 -68.118125
791.646948 1355.634494 -67.754937
790.619201 1353.957643 -67.391748
789.591453 1352.280792 -67.028559
788.563706 1350.603941 -66.665370
787.535959 1348.927090 -66.302181
786.508211 1347.250239 -65.938992
785.480464 1345.573388 -65.575803
784.452716 1343.896537 -65.212614
783.424969 1342.219686 -64.849425
782.397222 1340.542835 -64.486236
781.369474 1338.865984 -64.123047
780.341727 1337.189133 -63.759858
779.313980 1335.512283 -63.396669
778.286232 1333.835432 -63.033481
777.258485 1332.158581 -62.670292
776.230738 1330.481730 -62.307103
775.202990 1328.804879 -61.943914
774.175243 1327.128028 -61.580725
773.147495 1325.451177 -61.217536
772.119748 1323.774326 -60.854347
771.092001 1322.097475 -60.491158
770.064253 1320.420624 -60.127969
769.036506 1318.743773 -59.764780
768.008759 1317.066922 -59.401591
766.981011 1315.390071 -59.038402
765.953264 1313.713220 -58.675214
764.925516 1312.036369 -58.312025
763.897769 1310.359518 -57.948836
762.870022 1308.682667 -57.585647
761.842274 1307.005816 -57.222458
760.814527 1305.328965 -56.859269
759.786780 1303.652114 -56.496080
758.759032 1301.975263 -56.132891
757.731285 1300.298412 -55.769702
756.703538 1298.621561 -55.406513
755.675790 1296.944710 -55.043324
754.648043 1295.267859 -54.680135
753.620295 1293.591008 -54.316947
752.592548 1291.914157 -53.953758
751.564801 1290.237306 -53.590569
750.537053 1288.560455 -53.227380
749.509306 1286.883605 -52.864191
748.481559 1285.206754 -52.501002
747.453811 1283.529903 -52.137813
746.426064 1281.853052 -51.774624
745.398317 1280.176201 -51.411435
744.370569 1278.499350 -51.048246
743.342822 1276.822499 -50.685057
742.315074 1275.145648 -50.321868
741.287327 1273.468797 -49.958679
740.259580 1271.791946 -49.595491
739.231832 1270.115095 -49.232302
738.204085 1268.438244 -48.869113
737.176338 1266.761393 -48.505924
736.148590 1265.084542 -48.142735
735.120843 1263.407691 -47.779546
734.093096 1261.730840 -47.416357
733.065348 1260.053989 -47.053168
732.037601 1258.377138 -46.689979
731.009853 1256.700287 -46.326790
729.982106 1255.023436 -45.963601
728.954359 1253.346585 -45.600412
727.926611 1251.669734 -45.237224
726.898864 1249.992883 -44.874035
725.871117 1248.316032 -44.510846
724.843369 1246.639181 -44.147657
723.815622 1244.962330 -43.784468
722.787874 1243.285479 -43.421279
721.760127 1241.608628 -43.058090
720.732380 1239.931777 -42.694901
719.704632 1238.254927 -42.331712
718.676885 1236.578076 -41.968523
717.649138 1234.901225 -41.605334
716.621390 1233.224374 -41.242145
715.593643 1231.547523 -40.878957
714.565896 1229.870672 -40.515768
713.538148 1228.193821 -40.152579
712.510401 1226.516970 -39.789390
711.482653 1224.840119 -39.426201
710.454906 1223.163268 -39.063012
709.427159 1221.486417 -38.699823
708.399411 1219.809566 -38.336634
707.371664 1218.132715 -37.973445
706.343917 1216.455864 -37.610256
705.316169 1214.779013 -37.247067
704.288422 1213.102162 -36.883878
703.260675 1211.425311 -36.520689
702.232927 1209.748460 -36.157501
701.205180 1208.071609 -35.794312
700.177432 1206.394758 -35.431123
699.149685 1204.717907 -35.067934
698.121938 1203.041056 -34.704745
697.094190 1201.364205 -34.341556
696.066443 1199.687354 -33.978367
695.038696 1198.010503 -33.615178
694.010948 1196.333652 -33.251989
692.983201 1194.656801 -32.888800
691.955454 1192.979950 -32.525611
690.927706 1191.303099 -32.162422
689.899959 1189.626249 -31.799234
688.872211 1187.949398 -31.436045
687.844464 1186.272547 -31.072856
686.816717 1184.595696 -30.709667
685.788969 1182.918845 -30.346478
684.761222 1181.241994 -29.983289
683.733475 1179.565143 -29.620100
682.705727 1177.888292 -29.256911
681.677980 1176.211441 -28.893722
680.650232 1174.534590 -28.530533
679.622485 1172.857739 -28.167344
678.594738 1171.180888 -27.804155
677.566990 1169.504037 -27.440967
676.539243 1167.827186 -27.077778
675.511496 1166.150335 -26.714589
674.483748 1164.473484 -26.351400
673.456001 1162.796633 -25.988211
672.428254 1161.119782 -25.625022
671.400506 1159.442931 -25.261833
670.372759 1157.766080 -24.898644
669.345011 1156.089229 -24.535455
668.317264 1154.412378 -24.172266
667.289517 1152.735527 -23.809077
666.261769 1151.058676 -23.445888
665.234022 1149.381825 -23.082699
664.206275 1147.704974 -22.719511
663.178527 1146.028123 -22.356322
662.150780 1144.351272 -21.993133
661.123033 1142.674421 -21.629944
660.095285 1140.997571 -21.266755
659.067538 1139.320720 -20.903566
658.039790 1137.643869 -20.540377
657.012043 1135.967018 -20.177188
655.984296 1134.290167 -19.813999
654.956548 1132.613316 -19.450810
653.928801 1130.936465 -19.087621
652.901054 1129.259614 -18.724432
651.873306 1127.582763 -18.361244
650.845559 1125.905912 -17.998055
649.817811 1124.229061 -17.634866
648.790064 1122.552210 -17.271677
647.762317 1120.875359 -16.908488
646.734569 1119.198508 -16.545299
645.706822 1117.521657 -16.182110
644.679075 1115.844806 -15.818921
643.651327 1114.167955 -15.455732
642.623580 1112.491104 -15.092543
641.595833 1110.814253 -14.729354
640.568085 1109.137402 -14.366165
639.540338 1107.460551 -14.002977
638.512590 1105.783700 -13.639788
637.484843 1104.106849 -13.276599
636.457096 1102.429998 -12.913410
635.429348 1100.753147 -12.550221
634.401601 1099.076296 -12.187032
633.373854 1097.399445 -11.823843
632.346106 1095.722594 -11.460654
631.318359 1094.045743 -11.097465
630.290612 1092.368893 -10.734276
629.262864 1090.692042 -10.371087
628.235117 1089.015191 -10.007898
627.207369 1087.338340 -9.644710
626.179622 1085.661489 -9.281521
625.151875 1083.984638 -8.918332
624.124127 1082.307787 -8.555143
623.096380 1080.630936 -8.191954
622.068633 1078.954085 -7.828765
621.040885 1077.277234 -7.465576
620.013138 1075.600383 -7.102387
618.985391 1073.923532 -6.739198
617.957643 1072.246681 -6.376009
616.929896 1070.569830 -6.012820
615.902148 1068.892979 -5.649631
614.874401 1067.216128 -5.286442
613.846654 1065.539277 -4.923254
612.818906 1063.862426 -4.560065
611.791159 1062.185575 -4.196876
610.763412 1060.508724 -3.833687
609.735664 1058.831873 -3.470498
608.707917 1057.155022 -3.107309
607.680169 1055.478171 -2.744120
606.652422 1053.801320 -2.380931
605.624675 1052.124469 -2.017742
604.596927 1050.447618 -1.654553
603.569180 1048.770767 -1.291364
602.541433 1047.093916 -0.928175
601.513685 1045.417065 -0.564987
600.485938 1043.740215 -0.201798
599.458191 1042.063364 0.161391
598.430443 1040.386513 0.524580
597.402696 1038.709662 0.887769
596.374948 1037.032811 1.250958
595.347201 1035.355960 1.614147
594.319454 1033.679109 1.977336
593.291706 1032.002258 2.340525
592.263959 1030.325407 2.703714
591.236212 1028.648556 3.066903
590.208464 1026.971705 3.430092
589.180717 1025.294854 3.793280
588.152970 1023.618003 4.156469
587.125222 1021.941152 4.519658
586.097475 1020.264301 4.882847
585.069727 1018.587450 5.246036
584.041980 1016.910599 5.609225
583.014233 1015.233748 5.972414
581.986485 1013.556897 6.335603
580.958738 1011.880046 6.698792
579.930991 1010.203195 7.061981
578.903243 1008.526344 7.425170
577.875496 1006.849493 7.788359
576.847749 1005.172642 8.151548
575.820001 1003.495791 8.514736
574.792254 1001.818940 8.877925
573.764506 1000.142089 9.241114
572.736759 998.465238 9.604303
571.709012 996.788387 9.967492
570.681264 995.111537 10.330681
569.653517 993.434686 10.693870
568.625770 991.757835 11.057059
567.598022 990.080984 11.420248
566.570275 988.404133 11.783437
565.542527 986.727282 12.146626
564.514780 985.050431 12.509815
563.487033 983.373580 12.873003
562.459285 981.696729 13.236192
561.431538 980.019878 13.599381
560.403791 978.343027 13.962570
559.376043 976.666176 14.325759
558.348296 974.989325 14.688948
557.320549 973.312474 15.052137
556.292801 971.635623 15.415326
555.265054 969.958772 15.778515
554.237306 968.281921 16.141704
553.209559 966.605070 16.504893
552.181812 964.928219 16.868082
551.154064 963.251368 17.231270
550.126317 961.574517 17.594459
549.098570 959.897666 17.957648
548.070822 958.220815 18.320837
547.043075 956.543964 18.684026
546.015328 954.867113 19.047215
544.987580 953.190262 19.410404
543.959833 951.513411 19.773593
542.932085 949.836560 20.136782
541.904338 948.159709 20.499971
540.876591 946.482859 20.863160
539.848843 944.806008 21.226349
538.821096 943.129157 21.589538
537.793349 941.452306 21.952726
536.765601 939.775455 22.315915
535.737854 938.098604 22.679104
534.710106 936.421753 23.042293
533.682359 934.744902 23.405482
532.654612 933.068051 23.768671
531.626864 931.391200 24.131860
530.599117 929.714349 24.495049
529.571370 928.037498 24.858238
528.543622 926.360647 25.221427
527.515875 924.683796 25.584616
526.488128 923.006945 25.947805
525.460380 921.330094 26.310993
524.432633 919.653243 26.674182
523.404885 917.976392 27.037371
522.377138 916.299541 27.400560
521.349391 914.622690 27.763749
520.321643 912.945839 28.126938
519.293896 911.268988 28.490127
518.266149 909.592137 28.853316
517.238401 907.915286 29.216505
516.210654 906.238435 29.579694
515.182907 904.561584 29.942883
514.155159 902.884733 30.306072
513.127412 901.207882 30.669260
512.099664 899.531031 31.032449
511.071917 897.854180 31.395638
510.044170 896.177330 31.758827
509.016422 894.500479 32.122016
507.988675 892.823628 32.485205
506.960928 891.146777 32.848394
505.933180 889.469926 33.211583
504.905433 887.793075 33.574772
503.877686 886.116224 33.937961
502.849938 884.439373 34.301150
501.822191 882.762522 34.664339
500.794443 881.085671 35.027528
499.766696 879.408820 35.390716
498.738949 877.731969 35.753905
497.711201 876.055118 36.117094
496.683454 874.378267 36.480283
495.655707 872.701416 36.843472
494.627959 871.024565 37.206661
493.600212 869.347714 37.569850
492.572464 867.670863 37.933039
491.544717 865.994012 38.296228
490.516970 864.317161 38.659417
489.489222 862.640310 39.022606
488.461475 860.963459 39.385795
487.433728 859.286608 39.748983
486.405980 857.609757 40.112172
485.378233 855.932906 40.475361
484.350486 854.256055 40.838550
483.322738 852.579204 41.201739
482.294991 850.902353 41.564928
481.267243 849.225502 41.928117
480.239496 847.548652 42.291306
479.211749 845.871801 42.654495
478.184001 844.194950 43.017684
477.156254 842.518099 43.380873
476.128507 840.841248 43.744062
475.100759 839.164397 44.107250
474.073012 837.487546 44.470439
473.045265 835.810695 44.833628
472.017517 834.133844 45.196817
470.989770 832.456993 45.560006
469.962022 830.780142 45.923195
468.934275 829.103291 46.286384
467.906528 827.426440 46.649573
466.878780 825.749589 47.012762
465.851033 824.072738 47.375951
464.823286 822.395887 47.739140
463.795538 820.719036 48.102329
462.767791 819.042185 48.465518
461.740044 817.365334 48.828706
460.712296 815.688483 49.191895
459.684549 814.011632 49.555084
458.656801 812.334781 49.918273
457.629054 810.657930 50.281462
456.601307 808.981079 50.644651
455.573559 807.304228 51.007840
454.545812 805.627377 51.371029
453.518065 803.950526 51.734218
452.490317 802.273675 52.097407
451.462570 800.596824 52.460596
450.434822 798.919974 52.823785
449.407075 797.243123 53.186973
448.379328 795.566272 53.550162
447.351580 793.889421 53.913351
446.323833 792.212570 54.276540
445.296086 790.535719 54.639729
444.268338 788.858868 55.002918
443.240591 787.182017 55.366107
442.212844 785.505166 55.729296
441.185096 783.828315 56.092485
440.157349 782.151464 56.455674
439.129601 780.474613 56.818863
438.101854 778.797762 57.182052
437.074107 777.120911 57.545240
436.046359 775.444060 57.908429
435.018612 773.767209 58.271618
433.990865 772.090358 58.634807
432.963117 770.413507 58.997996
431.935370 768.736656 59.361185
430.907623 767.059805 59.724374
429.879875 765.382954 60.087563
428.852128 763.706103 60.450752
427.824380 762.029252 60.813941
426.796633 760.352401 61.177130
425.768886 758.675550 61.540319
424.741138 756.998699 61.903508
423.713391 755.321848 62.266696
422.685644 753.644997 62.629885
421.657896 751.968146 62.993074
420.630149 750.291296 63.356263
419.602402 748.614445 63.719452
418.574654 746.937594 64.082641
417.546907 745.260743 64.445830
416.519159 743.583892 64.809019
415.491412 741.907041 65.172208
414.463665 740.230190 65.535397
413.435917 738.553339 65.898586
412.408170 736.876488 66.261775
411.380423 735.199637 66.624963
410.352675 733.522786 66.988152
409.324928 731.845935 67.351341
408.297180 730.169084 67.714530
407.269433 728.492233 68.077719
406.241686 726.815382 68.440908
405.213938 725.138531 68.804097
404.186191 723.461680 69.167286
403.158444 721.784829 69.530475
402.130696 720.107978 69.893664
401.102949 718.431127 70.256853
400.075202 716.754276 70.620042
399.047454 715.077425 70.983230
398.019707 713.400574 71.346419
396.991959 711.723723 71.709608
395.964212 710.046872 72.072797
394.936465 708.370021 72.435986
393.908717 706.693170 72.799175
392.880970 705.016319 73.162364
391.853223 703.339468 73.525553
390.825475 701.662618 73.888742
389.797728 699.985767 74.251931
388.769981 698.308916 74.615120
387.742233 696.632065 74.978309
386.714486 694.955214 75.341498
385.686738 693.278363 75.704686
384.658991 691.601512 76.067875
383.631244 689.924661 76.431064
382.603496 688.247810 76.794253
381.575749 686.570959 77.157442
380.548002 684.894108 77.520631
379.520254 683.217257 77.883820
378.492507 681.540406 78.247009
377.464759 679.863555 78.610198
376.437012 678.186704 78.973387
375.409265 676.509853 79.336576
374.381517 674.833002 79.699765
373.353770 673.156151 80.062953
372.326023 671.479300 80.426142
371.298275 669.802449 80.789331
370.270528 668.125598 81.152520
369.242781 666.448747 81.515709
368.215033 664.771896 81.878898
367.187286 663.095045 82.242087
366.159538 661.418194 82.605276
365.131791 659.741343 82.968465
364.104044 658.064492 83.331654
363.076296 656.387641 83.694843
362.048549 654.710790 84.058032
361.020802 653.033940 84.421220
359.993054 651.357089 84.784409
358.965307 649.680238 85.147598
357.937560 648.003387 85.510787
356.909812 646.326536 85.873976
355.882065 644.649685 86.237165
354.854317 642.972834 86.600354
353.826570 641.295983 86.963543
352.798823 639.619132 87.326732
351.771075 637.942281 87.689921
350.743328 636.265430 88.053110
349.715581 634.588579 88.416299
348.687833 632.911728 88.779487
347.660086 631.234877 89.142676
346.632339 629.558026 89.505865
345.604591 627.881175 89.869054
344.576844 626.204324 90.232243
343.549096 624.527473 90.595432
342.521349 622.850622 90.958621
341.493602 621.173771 91.321810
340.465854 619.496920 91.684999
339.438107 617.820069 92.048188
338.410360 616.143218 92.411377
337.382612 614.466367 92.774566
336.354865 612.789516 93.137755
335.327117 611.112665 93.500943
334.299370 609.435814 93.864132
333.271623 607.758963 94.227321
332.243875 606.082112 94.590510
331.216128 604.405262 94.953699
330.188381 602.728411 95.316888
329.160633 601.051560 95.680077
328.132886 599.374709 96.043266
327.105139 597.697858 96.406455
326.077391 596.021007 96.769644
325.049644 594.344156 97.132833
324.021896 592.667305 97.496022
322.994149 590.990454 97.859210
321.966402 589.313603 98.222399
320.938654 587.636752 98.585588
319.910907 585.959901 98.948777
318.883160 584.283050 99.311966
317.855412 582.606199 99.675155
316.827665 580.929348 100.038344
315.799918 579.252497 100.401533
314.772170 577.575646 100.764722
313.744423 575.898795 101.127911
312.716675 574.221944 101.491100
311.688928 572.545093 101.854289
310.661181 570.868242 102.217477
309.633433 569.191391 102.580666
308.605686 567.514540 102.943855
307.577939 565.837689 103.307044
306.550191 564.160838 103.670233
305.522444 562.483987 104.033422
304.494697 560.807136 104.396611
303.466949 559.130285 104.759800
302.439202 557.453434 105.122989
301.411454 555.776584 105.486178
300.383707 554.099733 105.849367
299.355960 552.422882 106.212556
298.328212 550.746031 106.575745
297.300465 549.069180 106.938933
296.272718 547.392329 107.302122
295.244970 545.715478 107.665311
294.217223 544.038627 108.028500
293.189475 542.361776 108.391689
292.161728 540.684925 108.754878
291.133981 539.008074 109.118067
290.106233 537.331223 109.481256
289.078486 535.654372 109.844445
288.050739 533.977521 110.207634
287.022991 532.300670 110.570823
285.995244 530.623819 110.934012
284.967497 528.946968 111.297200
283.939749 527.270117 111.660389
282.912002 525.593266 112.023578
281.884254 523.916415 112.386767
280.856507 522.239564 112.749956
279.828760 520.562713 113.113145
278.801012 518.885862 113.476334
277.773265 517.209011 113.839523
276.745518 515.532160 114.202712
275.717770 513.855309 114.565901
274.690023 512.178458 114.929090
273.662276 510.501607 115.292279
272.634528 508.824756 115.655467
271.606781 507.147906 116.018656
270.579033 505.471055 116.381845
269.551286 503.794204 116.745034
268.523539 502.117353 117.108223
267.495791 500.440502 117.471412
266.468044 498.763651 117.834601
265.440297 497.086800 118.197790
264.412549 495.409949 118.560979
263.384802 493.733098 118.924168
262.357055 492.056247 119.287357
261.329307 490.379396 119.650546
260.301560 488.702545 120.013735
259.273812 487.025694 120.376923
258.246065 485.348843 120.740112
257.218318 483.671992 121.103301
256.190570 481.995141 121.466490
255.162823 480.318290 121.829679
254.135076 478.641439 122.192868
253.107328 476.964588 122.556057
252.079581 475.287737 122.919246
251.051833 473.610886 123.282435
250.024086 471.934035 123.645624
248.996339 470.257184 124.008813
247.968591 468.580333 124.372002
246.940844 466.903482 124.735190
245.913097 465.226631 125.098379
244.885349 463.549780 125.461568
243.857602 461.872929 125.824757
242.829855 460.196078 126.187946
241.802107 458.519228 126.551135
240.774360 456.842377 126.914324
239.746612 455.165526 127.277513
238.718865 453.488675 127.640702
237.691118 451.811824 128.003891
236.663370 450.134973 128.367080
235.635623 448.458122 128.730269
234.607876 446.781271 129.093457
233.580128 445.104420 129.456646
232.552381 443.427569 129.819835
231.524634 441.750718 130.183024
230.496886 440.073867 130.546213
229.469139 438.397016 130.909402
228.441391 436.720165 131.272591
227.413644 435.043314 131.635780
226.385897 433.366463 131.998969
225.358149 431.689612 132.362158
224.330402 430.012761 132.725347
223.302655 428.335910 133.088536
222.274907 426.659059 133.451725
221.247160 424.982208 133.814913
220.219412 423.305357 134.178102
219.191665 421.628506 134.541291
218.163918 419.951655 134.904480
217.136170 418.274804 135.267669
216.108423 416.597953 135.630858
215.080676 414.921102 135.994047
214.052928 413.244251 136.357236
213.025181 411.567400 136.720425
211.997434 409.890550 137.083614
210.969686 408.213699 137.446803
209.941939 406.536848 137.809992
208.914191 404.859997 138.173180
207.886444 403.183146 138.536369
206.858697 401.506295 138.899558
205.830949 399.829444 139.262747
204.803202 398.152593 139.625936
203.775455 396.475742 139.989125
202.747707 394.798891 140.352314
201.719960 393.122040 140.715503
200.692213 391.445189 141.078692
199.664465 389.768338 141.441881
198.636718 388.091487 141.805070
197.608970 386.414636 142.168259
196.581223 384.737785 142.531447
195.553476 383.060934 142.894636
194.525728 381.384083 143.257825
193.497981 379.707232 143.621014
192.470234 378.030381 143.984203
191.442486 376.353530 144.347392
190.414739 374.676679 144.710581
189.386992 372.999828 145.073770
188.359244 371.322977 145.436959
187.331497 369.646126 145.800148
186.303749 367.969275 146.163337
185.276002 366.292424 146.526526
184.248255 364.615573 146.889715
183.220507 362.938722 147.252903
182.192760 361.261872 147.616092
181.165013 359.585021 147.979281
180.137265 357.908170 148.342470
179.109518 356.231319 148.705659
178.081770 354.554468 149.068848
177.054023 352.877617 149.432037
176.026276 351.200766 149.795226
174.998528 349.523915 150.158415
173.970781 347.847064 150.521604
172.943034 346.170213 150.884793
171.915286 344.493362 151.247982
170.887539 342.816511 151.611170
169.859792 341.139660 151.974359
168.832044 339.462809 152.337548
167.804297 337.785958 152.700737
166.776549 336.109107 153.063926
165.748802 334.432256 153.427115
164.721055 332.755405 153.790304
163.693307 331.078554 154.153493
162.665560 329.401703 154.516682
161.637813 327.724852 154.879871
160.610065 326.048001 155.243060
159.582318 324.371150 155.606249
158.554571 322.694299 155.969437
157.526823 321.017448 156.332626
156.499076 319.340597 156.695815
155.471328 317.663746 157.059004
154.443581 315.986895 157.422193
153.415834 314.310044 157.785382
152.388086 312.633193 158.148571
151.360339 310.956343 158.511760
150.332592 309.279492 158.874949
149.304844 307.602641 159.238138
148.277097 305.925790 159.601327
147.249350 304.248939 159.964516
146.221602 302.572088 160.327705
145.193855 300.895237 160.690893
144.166107 299.218386 161.054082
143.138360 297.541535 161.417271
142.110613 295.864684 161.780460
141.082865 294.187833 162.143649
140.055118 292.510982 162.506838
139.027371 290.834131 162.870027
137.999623 289.157280 163.233216
136.971876 287.480429 163.596405
135.944128 285.803578 163.959594
134.916381 284.126727 164.322783
133.888634 282.449876 164.685972
132.860886 280.773025 165.049160
131.833139 279.096174 165.412349
130.805392 277.419323 165.775538
129.777644 275.742472 166.138727
128.749897 274.065621 166.501916
127.722150 272.388770 166.865105
126.694402 270.711919 167.228294
125.666655 269.035068 167.591483
124.638907 267.358217 167.954672
123.611160 265.681366 168.317861
122.583413 264.004515 168.681050
121.555665 262.327665 169.044239
120.527918 260.650814 169.407427
119.500171 258.973963 169.770616
118.472423 257.297112 170.133805
117.444676 255.620261 170.496994
116.416929 253.943410 170.860183
115.389181 252.266559 171.223372
114.361434 250.589708 171.586561
113.333686 248.912857 171.949750
112.305939 247.236006 172.312939
111.278192 245.559155 172.676128
110.250444 243.882304 173.039317
109.222697 242.205453 173.402506
108.194950 240.528602 173.765695
107.167202 238.851751 174.128883
106.139455 237.174900 174.492072
105.111708 235.498049 174.855261
104.083960 233.821198 175.218450
103.056213 232.144347 175.581639
102.028465 230.467496 175.944828
101.000718 228.790645 176.308017
99.972971 227.113794 176.671206
98.945223 225.436943 177.034395
97.917476 223.760092 177.397584
96.889729 222.083241 177.760773
95.861981 220.406390 178.123962
94.834234 218.729539 178.487150
93.806486 217.052688 178.850339
92.778739 215.375837 179.213528
91.750992 213.698987 179.576717
90.723244 212.022136 179.939906
89.695497 210.345285 180.303095
88.667750 208.668434 180.666284
87.640002 206.991583 181.029473
86.612255 205.314732 181.392662
85.584508 203.637881 181.755851
84.556760 201.961030 182.119040
83.529013 200.284179 182.482229
82.501265 198.607328 182.845417
81.473518 196.930477 183.208606
80.445771 195.253626 183.571795
79.418023 193.576775 183.934984
78.390276 191.899924 184.298173
77.362529 190.223073 184.661362
76.334781 188.546222 185.024551
75.307034 186.869371 185.387740
74.279287 185.192520 185.750929
73.251539 183.515669 186.114118
72.223792 181.838818 186.477307
71.196044 180.161967 186.840496
70.168297 178.485116 187.203684
69.140550 176.808265 187.566873
68.112802 175.131414 187.930062
67.085055 173.454563 188.293251
66.057308 171.777712 188.656440
65.029560 170.100861 189.019629
64.001813 168.424010 189.382818
62.974065 166.747159 189.746007
61.946318 165.070309 190.109196
60.918571 163.393458 190.472385
59.890823 161.716607 190.835574
58.863076 160.039756 191.198763
57.835329 158.362905 191.561952
56.807581 156.686054 191.925140
55.779834 155.009203 192.288329
54.752087 153.332352 192.651518
53.724339 151.655501 193.014707
52.696592 149.978650 193.377896
51.668844 148.301799 193.741085
50.641097 146.624948 194.104274
49.613350 144.948097 194.467463
48.585602 143.271246 194.830652
47.557855 141.594395 195.193841
46.530108 139.917544 195.557030
