1920.683394 1668.000000 -566.108365
1920.422087 1668.000000 -568.091221
1920.160780 1668.000000 -570.074077
1919.899474 1668.000000 -572.056934
1919.638167 1668.000000 -574.039790
1919.376861 1668.000000 -576.022646
1919.115554 1668.000000 -578.005502
1918.854247 1668.000000 -579.988359
1918.592941 1668.000000 -581.971215
1918.331634 1668.000000 -583.954071
1918.070327 1668.000000 -585.936927
1917.809021 1668.000000 -587.919784
1917.547714 1668.000000 -589.902640
1917.286408 1668.000000 -591.885496
1917.025101 1668.000000 -593.868352
1916.763794 1668.000000 -595.851208
1916.502488 1668.000000 -597.834065
1916.241181 1668.000000 -599.816921
1915.979874 1668.000000 -601.799777
1915.718568 1668.000000 -603.782633
1915.457261 1668.000000 -605.765490
1915.195954 1668.000000 -607.748346
1914.934648 1668.000000 -609.731202
1914.673341 1668.000000 -611.714058
1914.412035 1668.000000 -613.696915
1914.150728 1668.000000 -615.679771
1913.889421 1668.000000 -617.662627
1913.628115 1668.000000 -619.645483
1913.366808 1668.000000 -621.628340
1913.105501 1668.000000 -623.611196
1912.844195 1668.000000 -625.594052
1912.582888 1668.000000 -627.576908
1912.321581 1668.000000 -629.559764
1912.000000 1668.000000 -632.000000
1911.559472 1666.123353 -632.533038
1911.118945 1664.246705 -633.066077
1910.678417 1662.370058 -633.599115
1910.237890 1660.493410 -634.132153
1909.797362 1658.616763 -634.665192
1909.356835 1656.740115 -635.198230
1908.916307 1654.863468 -635.731268
1908.475779 1652.986821 -636.264307
1908.035252 1651.110173 -636.797345
1907.594724 1649.233526 -637.330384
1907.154197 1647.356878 -637.863422
1906.713669 1645.480231 -638.396460
1906.273142 1643.603583 -638.929499
1905.832614 1641.726936 -639.462537
1905.392087 1639.850289 -639.995575
1904.951559 1637.973641 -640.528614
1904.511031 1636.096994 -641.061652
1904.070504 1634.220346 -641.594690
1903.629976 1632.343699 -642.127729
1903.189449 1630.467051 -642.660767
1902.748921 1628.590404 -643.193805
1902.308394 1626.713757 -643.726844
1901.867866 1624.837109 -644.259882
1901.427338 1622.960462 -644.792921
1900.986811 1621.083814 -645.325959
1900.546283 1619.207167 -645.858997
1900.105756 1617.330519 -646.392036
1899.665228 1615.453872 -646.925074
1899.224701 1613.577225 -647.458112
1898.784173 1611.700577 -647.991151
1898.343645 1609.823930 -648.524189
1897.903118 1607.947282 -649.057227
1897.462590 1606.070635 -649.590266
1897.022063 1604.193987 -650.123304
1896.581535 1602.317340 -650.656342
1896.141008 1600.440693 -651.189381
1895.700480 1598.564045 -651.722419
1895.259953 1596.687398 -652.255457
1894.819425 1594.810750 -652.788496
1894.378897 1592.934103 -653.321534
1893.938370 1591.057455 -653.854573
1893.497842 1589.180808 -654.387611
1893.057315 1587.304161 -654.920649
1892.616787 1585.427513 -655.453688
1892.176260 1583.550866 -655.986726
1891.735732 1581.674218 -656.519764
1891.295204 1579.797571 -657.052803
1890.854677 1577.920923 -657.585841
1890.414149 1576.044276 -658.118879
1889.973622 1574.167629 -658.651918
1889.533094 1572.290981 -659.184956
1889.092567 1570.414334 -659.717994
1888.652039 1568.537686 -660.251033
1888.211511 1566.661039 -660.784071
1887.770984 1564.784391 -661.317109
1887.330456 1562.907744 -661.850148
1886.889929 1561.031096 -662.383186
1886.449401 1559.154449 -662.916225
1886.008874 1557.277802 -663.449263
1885.568346 1555.401154 -663.982301
1885.127818 1553.524507 -664.515340
1884.687291 1551.647859 -665.048378
1884.246763 1549.771212 -665.581416
1883.806236 1547.894564 -666.114455
1883.365708 1546.017917 -666.647493
1882.925181 1544.141270 -667.180531
1882.484653 1542.264622 -667.713570
1882.044126 1540.387975 -668.246608
1881.603598 1538.511327 -668.779646
1881.163070 1536.634680 -669.312685
1880.722543 1534.758032 -669.845723
1880.282015 1532.881385 -670.378762
1879.841488 1531.004738 -670.911800
1879.400960 1529.128090 -671.444838
1878.960433 1527.251443 -671.977877
1878.519905 1525.374795 -672.510915
1878.079377 1523.498148 -673.043953
1877.638850 1521.621500 -673.576992
1877.198322 1519.744853 -674.110030
1876.757795 1517.868206 -674.643068
1876.317267 1515.991558 -675.176107
1875.876740 1514.114911 -675.709145
1875.436212 1512.238263 -676.242183
1874.995684 1510.361616 -676.775222
1874.555157 1508.484968 -677.308260
1874.114629 1506.608321 -677.841298
1873.674102 1504.731674 -678.374337
1873.233574 1502.855026 -678.907375
1872.793047 1500.978379 -679.440414
1872.352519 1499.101731 -679.973452
1871.911992 1497.225084 -680.506490
1871.471464 1495.348436 -681.039529
1871.030936 1493.471789 -681.572567
1870.590409 1491.595142 -682.105605
1870.149881 1489.718494 -682.638644
1869.709354 1487.841847 -683.171682
1869.268826 1485.965199 -683.704720
1868.828299 1484.088552 -684.237759
1868.387771 1482.211904 -684.770797
1867.947243 1480.335257 -685.303835
1867.506716 1478.458610 -685.836874
1867.066188 1476.581962 -686.369912
1866.625661 1474.705315 -686.902951
1866.185133 1472.828667 -687.435989
1865.744606 1470.952020 -687.969027
1865.304078 1469.075372 -688.502066
1864.863550 1467.198725 -689.035104
1864.423023 1465.322078 -689.568142
1863.982495 1463.445430 -690.101181
1863.541968 1461.568783 -690.634219
1863.101440 1459.692135 -691.167257
1862.660913 1457.815488 -691.700296
1862.220385 1455.938840 -692.233334
1861.779858 1454.062193 -692.766372
1861.339330 1452.185546 -693.299411
1860.898802 1450.308898 -693.832449
1860.458275 1448.432251 -694.365487
1860.017747 1446.555603 -694.898526
1859.577220 1444.678956 -695.431564
1859.136692 1442.802308 -695.964603
1858.696165 1440.925661 -696.497641
1858.255637 1439.049014 -697.030679
1857.815109 1437.172366 -697.563718
1857.374582 1435.295719 -698.096756
1856.934054 1433.419071 -698.629794
1856.493527 1431.542424 -699.162833
1856.052999 1429.665776 -699.695871
1855.612472 1427.789129 -700.228909
1855.171944 1425.912482 -700.761948
1854.731416 1424.035834 -701.294986
1854.290889 1422.159187 -701.828024
1853.850361 1420.282539 -702.361063
1853.409834 1418.405892 -702.894101
1852.969306 1416.529244 -703.427140
1852.528779 1414.652597 -703.960178
1852.088251 1412.775950 -704.493216
1851.647723 1410.899302 -705.026255
1851.207196 1409.022655 -705.559293
1850.766668 1407.146007 -706.092331
1850.326141 1405.269360 -706.625370
1849.885613 1403.392712 -707.158408
1849.445086 1401.516065 -707.691446
1849.004558 1399.639418 -708.224485
1848.564031 1397.762770 -708.757523
1848.123503 1395.886123 -709.290561
1847.682975 1394.009475 -709.823600
1847.242448 1392.132828 -710.356638
1846.801920 1390.256180 -710.889676
1846.361393 1388.379533 -711.422715
1845.920865 1386.502886 -711.955753
1845.480338 1384.626238 -712.488792
1845.039810 1382.749591 -713.021830
1844.599282 1380.872943 -713.554868
1844.158755 1378.996296 -714.087907
1843.718227 1377.119648 -714.620945
1843.277700 1375.243001 -715.153983
1842.837172 1373.366353 -715.687022
1842.396645 1371.489706 -716.220060
1841.956117 1369.613059 -716.753098
1841.515589 1367.736411 -717.286137
1841.075062 1365.859764 -717.819175
1840.634534 1363.983116 -718.352213
1840.194007 1362.106469 -718.885252
1839.753479 1360.229821 -719.418290
1839.312952 1358.353174 -719.951328
1838.872424 1356.476527 -720.484367
1838.431897 1354.599879 -721.017405
1837.991369 1352.723232 -721.550444
1837.550841 1350.846584 -722.083482
1837.110314 1348.969937 -722.616520
1836.669786 1347.093289 -723.149559
1836.229259 1345.216642 -723.682597
1835.788731 1343.339995 -724.215635
1835.348204 1341.463347 -724.748674
1834.907676 1339.586700 -725.281712
1834.467148 1337.710052 -725.814750
1834.026621 1335.833405 -726.347789
1833.586093 1333.956757 -726.880827
1833.145566 1332.080110 -727.413865
1832.705038 1330.203463 -727.946904
1832.264511 1328.326815 -728.479942
1831.823983 1326.450168 -729.012981
1831.383455 1324.573520 -729.546019
1830.942928 1322.696873 -730.079057
1830.502400 1320.820225 -730.612096
1830.061873 1318.943578 -731.145134
1829.621345 1317.066931 -731.678172
1829.180818 1315.190283 -732.211211
1828.740290 1313.313636 -732.744249
1828.299763 1311.436988 -733.277287
1827.859235 1309.560341 -733.810326
1827.418707 1307.683693 -734.343364
1826.978180 1305.807046 -734.876402
1826.537652 1303.930399 -735.409441
1826.097125 1302.053751 -735.942479
1825.656597 1300.177104 -736.475517
1825.216070 1298.300456 -737.008556
1824.775542 1296.423809 -737.541594
1824.335014 1294.547161 -738.074633
1823.894487 1292.670514 -738.607671
1823.453959 1290.793867 -739.140709
1823.013432 1288.917219 -739.673748
1822.572904 1287.040572 -740.206786
1822.132377 1285.163924 -740.739824
1821.691849 1283.287277 -741.272863
1821.251321 1281.410629 -741.805901
1820.810794 1279.533982 -742.338939
1820.370266 1277.657335 -742.871978
1819.929739 1275.780687 -743.405016
1819.489211 1273.904040 -743.938054
1819.048684 1272.027392 -744.471093
1818.608156 1270.150745 -745.004131
1818.167629 1268.274097 -745.537170
1817.727101 1266.397450 -746.070208
1817.286573 1264.520803 -746.603246
1816.846046 1262.644155 -747.136285
1816.405518 1260.767508 -747.669323
1815.964991 1258.890860 -748.202361
1815.524463 1257.014213 -748.735400
1815.083936 1255.137565 -749.268438
1814.643408 1253.260918 -749.801476
1814.202880 1251.384271 -750.334515
1813.762353 1249.507623 -750.867553
1813.321825 1247.630976 -751.400591
1812.881298 1245.754328 -751.933630
1812.440770 1243.877681 -752.466668
1812.000243 1242.001033 -752.999706
1811.559715 1240.124386 -753.532745
1811.119187 1238.247739 -754.065783
1810.678660 1236.371091 -754.598822
1810.238132 1234.494444 -755.131860
1809.797605 1232.617796 -755.664898
1809.357077 1230.741149 -756.197937
1808.916550 1228.864501 -756.730975
1808.476022 1226.987854 -757.264013
1808.035494 1225.111207 -757.797052
1807.594967 1223.234559 -758.330090
1807.154439 1221.357912 -758.863128
1806.713912 1219.481264 -759.396167
1806.273384 1217.604617 -759.929205
1805.832857 1215.727969 -760.462243
1805.392329 1213.851322 -760.995282
1804.951802 1211.974675 -761.528320
1804.511274 1210.098027 -762.061359
1804.070746 1208.221380 -762.594397
1803.630219 1206.344732 -763.127435
1803.189691 1204.468085 -763.660474
1802.749164 1202.591437 -764.193512
1802.308636 1200.714790 -764.726550
1801.868109 1198.838143 -765.259589
1801.427581 1196.961495 -765.792627
1800.987053 1195.084848 -766.325665
1800.546526 1193.208200 -766.858704
1800.105998 1191.331553 -767.391742
1799.665471 1189.454905 -767.924780
1799.224943 1187.578258 -768.457819
1798.784416 1185.701610 -768.990857
1798.343888 1183.824963 -769.523895
1797.903360 1181.948316 -770.056934
1797.462833 1180.071668 -770.589972
1797.022305 1178.195021 -771.123011
1796.581778 1176.318373 -771.656049
1796.141250 1174.441726 -772.189087
1795.700723 1172.565078 -772.722126
1795.260195 1170.688431 -773.255164
1794.819668 1168.811784 -773.788202
1794.379140 1166.935136 -774.321241
1793.938612 1165.058489 -774.854279
1793.498085 1163.181841 -775.387317
1793.057557 1161.305194 -775.920356
1792.617030 1159.428546 -776.453394
1792.176502 1157.551899 -776.986432
1791.735975 1155.675252 -777.519471
1791.295447 1153.798604 -778.052509
1790.854919 1151.921957 -778.585547
1790.414392 1150.045309 -779.118586
1789.973864 1148.168662 -779.651624
1789.533337 1146.292014 -780.184663
1789.092809 1144.415367 -780.717701
1788.652282 1142.538720 -781.250739
1788.211754 1140.662072 -781.783778
1787.771226 1138.785425 -782.316816
1787.330699 1136.908777 -782.849854
1786.890171 1135.032130 -783.382893
1786.449644 1133.155482 -783.915931
1786.009116 1131.278835 -784.448969
1785.568589 1129.402188 -784.982008
1785.128061 1127.525540 -785.515046
1784.687534 1125.648893 -786.048084
1784.247006 1123.772245 -786.581123
1783.806478 1121.895598 -787.114161
1783.365951 1120.018950 -787.647200
1782.925423 1118.142303 -788.180238
1782.484896 1116.265656 -788.713276
1782.044368 1114.389008 -789.246315
1781.603841 1112.512361 -789.779353
1781.163313 1110.635713 -790.312391
1780.722785 1108.759066 -790.845430
1780.282258 1106.882418 -791.378468
1779.841730 1105.005771 -791.911506
1779.401203 1103.129124 -792.444545
1778.960675 1101.252476 -792.977583
1778.520148 1099.375829 -793.510621
1778.079620 1097.499181 -794.043660
1777.639092 1095.622534 -794.576698
1777.198565 1093.745886 -795.109736
1776.758037 1091.869239 -795.642775
1776.317510 1089.992592 -796.175813
1775.876982 1088.115944 -796.708852
1775.436455 1086.239297 -797.241890
1774.995927 1084.362649 -797.774928
1774.555399 1082.486002 -798.307967
1774.114872 1080.609354 -798.841005
1773.674344 1078.732707 -799.374043
1773.233817 1076.856060 -799.907082
1772.793289 1074.979412 -800.440120
1772.352762 1073.102765 -800.973158
1771.912234 1071.226117 -801.506197
1771.471707 1069.349470 -802.039235
1771.031179 1067.472822 -802.572273
1770.590651 1065.596175 -803.105312
1770.150124 1063.719528 -803.638350
1769.709596 1061.842880 -804.171389
1769.269069 1059.966233 -804.704427
1768.828541 1058.089585 -805.237465
1768.388014 1056.212938 -805.770504
1767.947486 1054.336290 -806.303542
1767.506958 1052.459643 -806.836580
1767.066431 1050.582996 -807.369619
1766.625903 1048.706348 -807.902657
1766.185376 1046.829701 -808.435695
1765.744848 1044.953053 -808.968734
1765.304321 1043.076406 -809.501772
1764.863793 1041.199758 -810.034810
1764.423265 1039.323111 -810.567849
1763.982738 1037.446464 -811.100887
1763.542210 1035.569816 -811.633925
1763.101683 1033.693169 -812.166964
1762.661155 1031.816521 -812.700002
1762.220628 1029.939874 -813.233041
1761.780100 1028.063226 -813.766079
1761.339573 1026.186579 -814.299117
1760.899045 1024.309932 -814.832156
1760.458517 1022.433284 -815.365194
1760.017990 1020.556637 -815.898232
1759.577462 1018.679989 -816.431271
1759.136935 1016.803342 -816.964309
1758.696407 1014.926694 -817.497347
1758.255880 1013.050047 -818.030386
1757.815352 1011.173400 -818.563424
1757.374824 1009.296752 -819.096462
1756.934297 1007.420105 -819.629501
1756.493769 1005.543457 -820.162539
1756.053242 1003.666810 -820.695578
1755.612714 1001.790162 -821.228616
1755.172187 999.913515 -821.761654
1754.731659 998.036867 -822.294693
1754.291131 996.160220 -822.827731
1753.850604 994.283573 -823.360769
1753.410076 992.406925 -823.893808
1752.969549 990.530278 -824.426846
1752.529021 988.653630 -824.959884
1752.088494 986.776983 -825.492923
1751.647966 984.900335 -826.025961
1751.207439 983.023688 -826.558999
1750.766911 981.147041 -827.092038
1750.326383 979.270393 -827.625076
1749.885856 977.393746 -828.158114
1749.445328 975.517098 -828.691153
1749.004801 973.640451 -829.224191
1748.564273 971.763803 -829.757230
1748.123746 969.887156 -830.290268
1747.683218 968.010509 -830.823306
1747.242690 966.133861 -831.356345
1746.802163 964.257214 -831.889383
1746.361635 962.380566 -832.422421
1745.921108 960.503919 -832.955460
1745.480580 958.627271 -833.488498
1745.040053 956.750624 -834.021536
1744.599525 954.873977 -834.554575
1744.158997 952.997329 -835.087613
1743.718470 951.120682 -835.620651
1743.277942 949.244034 -836.153690
1742.837415 947.367387 -836.686728
1742.396887 945.490739 -837.219766
1741.956360 943.614092 -837.752805
1741.515832 941.737445 -838.285843
1741.075304 939.860797 -838.818882
1740.634777 937.984150 -839.351920
1740.194249 936.107502 -839.884958
1739.753722 934.230855 -840.417997
1739.313194 932.354207 -840.951035
1738.872667 930.477560 -841.484073
1738.432139 928.600913 -842.017112
1737.991612 926.724265 -842.550150
1737.551084 924.847618 -843.083188
1737.110556 922.970970 -843.616227
1736.670029 921.094323 -844.149265
1736.229501 919.217675 -844.682303
1735.788974 917.341028 -845.215342
1735.348446 915.464381 -845.748380
1734.907919 913.587733 -846.281419
1734.467391 911.711086 -846.814457
1734.026863 909.834438 -847.347495
1733.586336 907.957791 -847.880534
1733.145808 906.081143 -848.413572
1732.705281 904.204496 -848.946610
1732.264753 902.327849 -849.479649
1731.824226 900.451201 -850.012687
1731.383698 898.574554 -850.545725
1730.943170 896.697906 -851.078764
1730.502643 894.821259 -851.611802
1730.062115 892.944611 -852.144840
1729.621588 891.067964 -852.677879
1729.181060 889.191317 -853.210917
1728.740533 887.314669 -853.743955
1728.300005 885.438022 -854.276994
1727.859478 883.561374 -854.810032
1727.418950 881.684727 -855.343071
1726.978422 879.808079 -855.876109
1726.537895 877.931432 -856.409147
1726.097367 876.054785 -856.942186
1725.656840 874.178137 -857.475224
1725.216312 872.301490 -858.008262
1724.775785 870.424842 -858.541301
1724.335257 868.548195 -859.074339
1723.894729 866.671547 -859.607377
1723.454202 864.794900 -860.140416
1723.013674 862.918253 -860.673454
1722.573147 861.041605 -861.206492
1722.132619 859.164958 -861.739531
1721.692092 857.288310 -862.272569
1721.251564 855.411663 -862.805608
1720.811036 853.535015 -863.338646
1720.370509 851.658368 -863.871684
1719.929981 849.781721 -864.404723
1719.489454 847.905073 -864.937761
1719.048926 846.028426 -865.470799
1718.608399 844.151778 -866.003838
1718.167871 842.275131 -866.536876
1717.727344 840.398483 -867.069914
1717.286816 838.521836 -867.602953
1716.846288 836.645189 -868.135991
1716.405761 834.768541 -868.669029
1715.965233 832.891894 -869.202068
1715.524706 831.015246 -869.735106
1715.084178 829.138599 -870.268144
1714.643651 827.261951 -870.801183
1714.203123 825.385304 -871.334221
1713.762595 823.508657 -871.867260
1713.322068 821.632009 -872.400298
1712.881540 819.755362 -872.933336
1712.441013 817.878714 -873.466375
1712.000000 816.000000 -874.000000
1710.456702 815.235843 -872.982997
1708.913404 814.471686 -871.965993
1707.370107 813.707528 -870.948990
1705.826809 812.943371 -869.931987
1704.283511 812.179214 -868.914984
1702.740213 811.415057 -867.897980
1701.196915 810.650900 -866.880977
1699.653618 809.886743 -865.863974
1698.110320 809.122585 -864.846970
1696.567022 808.358428 -863.829967
1695.023724 807.594271 -862.812964
1693.480426 806.830114 -861.795961
1691.937128 806.065957 -860.778957
1690.393831 805.301800 -859.761954
1688.850533 804.537642 -858.744951
1687.307235 803.773485 -857.727947
1685.763937 803.009328 -856.710944
1684.220639 802.245171 -855.693941
1682.677342 801.481014 -854.676937
1681.134044 800.716857 -853.659934
1679.590746 799.952699 -852.642931
1678.047448 799.188542 -851.625928
1676.504150 798.424385 -850.608924
1674.960853 797.660228 -849.591921
1673.417555 796.896071 -848.574918
1671.874257 796.131914 -847.557914
1670.330959 795.367756 -846.540911
1668.787661 794.603599 -845.523908
1667.244364 793.839442 -844.506905
1665.701066 793.075285 -843.489901
1664.157768 792.311128 -842.472898
1662.614470 791.546971 -841.455895
1661.071172 790.782813 -840.438891
1659.527874 790.018656 -839.421888
1657.984577 789.254499 -838.404885
1656.441279 788.490342 -837.387882
1654.897981 787.726185 -836.370878
1653.354683 786.962028 -835.353875
1651.811385 786.197870 -834.336872
1650.268088 785.433713 -833.319868
1648.724790 784.669556 -832.302865
1647.181492 783.905399 -831.285862
1645.638194 783.141242 -830.268859
1644.094896 782.377085 -829.251855
1642.551599 781.612927 -828.234852
1641.008301 780.848770 -827.217849
1639.465003 780.084613 -826.200845
1637.921705 779.320456 -825.183842
1636.378407 778.556299 -824.166839
1634.835109 777.792142 -823.149836
1633.291812 777.027984 -822.132832
1631.748514 776.263827 -821.115829
1630.205216 775.499670 -820.098826
1628.661918 774.735513 -819.081822
1627.118620 773.971356 -818.064819
1625.575323 773.207199 -817.047816
1624.032025 772.443041 -816.030812
1622.488727 771.678884 -815.013809
1620.945429 770.914727 -813.996806
1619.402131 770.150570 -812.979803
1617.858834 769.386413 -811.962799
1616.315536 768.622256 -810.945796
1614.772238 767.858098 -809.928793
1613.228940 767.093941 -808.911789
1611.685642 766.329784 -807.894786
1610.142345 765.565627 -806.877783
1608.599047 764.801470 -805.860780
1607.055749 764.037313 -804.843776
1605.512451 763.273155 -803.826773
1603.969153 762.508998 -802.809770
1602.425855 761.744841 -801.792766
1600.882558 760.980684 -800.775763
1599.339260 760.216527 -799.758760
1597.795962 759.452370 -798.741757
1596.252664 758.688212 -797.724753
1594.709366 757.924055 -796.707750
1593.166069 757.159898 -795.690747
1591.622771 756.395741 -794.673743
1590.079473 755.631584 -793.656740
1588.536175 754.867427 -792.639737
1586.992877 754.103269 -791.622734
1585.449580 753.339112 -790.605730
1583.906282 752.574955 -789.588727
1582.362984 751.810798 -788.571724
1580.819686 751.046641 -787.554720
1579.276388 750.282484 -786.537717
1577.733091 749.518326 -785.520714
1576.189793 748.754169 -784.503710
1574.646495 747.990012 -783.486707
1573.103197 747.225855 -782.469704
1571.559899 746.461698 -781.452701
1570.016601 745.697541 -780.435697
1568.473304 744.933383 -779.418694
1566.930006 744.169226 -778.401691
1565.386708 743.405069 -777.384687
1563.843410 742.640912 -776.367684
1562.300112 741.876755 -775.350681
1560.756815 741.112598 -774.333678
1559.213517 740.348440 -773.316674
1557.670219 739.584283 -772.299671
1556.126921 738.820126 -771.282668
1554.583623 738.055969 -770.265664
1553.040326 737.291812 -769.248661
1551.497028 736.527655 -768.231658
1549.953730 735.763497 -767.214655
1548.410432 734.999340 -766.197651
1546.867134 734.235183 -765.180648
1545.323837 733.471026 -764.163645
1543.780539 732.706869 -763.146641
1542.237241 731.942712 -762.129638
1540.693943 731.178554 -761.112635
1539.150645 730.414397 -760.095632
1537.607347 729.650240 -759.078628
1536.064050 728.886083 -758.061625
1534.520752 728.121926 -757.044622
1532.977454 727.357768 -756.027618
1531.434156 726.593611 -755.010615
1529.890858 725.829454 -753.993612
1528.347561 725.065297 -752.976608
1526.804263 724.301140 -751.959605
1525.260965 723.536983 -750.942602
1523.717667 722.772825 -749.925599
1522.174369 722.008668 -748.908595
1520.631072 721.244511 -747.891592
1519.087774 720.480354 -746.874589
1517.544476 719.716197 -745.857585
1516.001178 718.952040 -744.840582
1514.457880 718.187882 -743.823579
1512.914582 717.423725 -742.806576
1511.371285 716.659568 -741.789572
1509.827987 715.895411 -740.772569
1508.284689 715.131254 -739.755566
1506.741391 714.367097 -738.738562
1505.198093 713.602939 -737.721559
1503.654796 712.838782 -736.704556
1502.111498 712.074625 -735.687553
1500.568200 711.310468 -734.670549
1499.024902 710.546311 -733.653546
1497.481604 709.782154 -732.636543
1495.938307 709.017996 -731.619539
1494.395009 708.253839 -730.602536
1492.851711 707.489682 -729.585533
1491.308413 706.725525 -728.568530
1489.765115 705.961368 -727.551526
1488.221818 705.197211 -726.534523
1486.678520 704.433053 -725.517520
1485.135222 703.668896 -724.500516
1483.591924 702.904739 -723.483513
1482.048626 702.140582 -722.466510
1480.505328 701.376425 -721.449507
1478.962031 700.612268 -720.432503
1477.418733 699.848110 -719.415500
1475.875435 699.083953 -718.398497
1474.332137 698.319796 -717.381493
1472.788839 697.555639 -716.364490
1471.245542 696.791482 -715.347487
1469.702244 696.027325 -714.330483
1468.158946 695.263167 -713.313480
1466.615648 694.499010 -712.296477
1465.072350 693.734853 -711.279474
1463.529053 692.970696 -710.262470
1461.985755 692.206539 -709.245467
1460.442457 691.442382 -708.228464
1458.899159 690.678224 -707.211460
1457.355861 689.914067 -706.194457
1455.812564 689.149910 -705.177454
1454.269266 688.385753 -704.160451
1452.725968 687.621596 -703.143447
1451.182670 686.857439 -702.126444
1449.639372 686.093281 -701.109441
1448.096074 685.329124 -700.092437
1446.552777 684.564967 -699.075434
1445.009479 683.800810 -698.058431
1443.466181 683.036653 -697.041428
1441.922883 682.272496 -696.024424
1440.379585 681.508338 -695.007421
1438.836288 680.744181 -693.990418
1437.292990 679.980024 -692.973414
1435.749692 679.215867 -691.956411
1434.206394 678.451710 -690.939408
1432.663096 677.687553 -689.922405
1431.119799 676.923395 -688.905401
1429.576501 676.159238 -687.888398
1428.033203 675.395081 -686.871395
1426.489905 674.630924 -685.854391
1424.946607 673.866767 -684.837388
1423.403310 673.102610 -683.820385
1421.860012 672.338452 -682.803381
1420.316714 671.574295 -681.786378
1418.773416 670.810138 -680.769375
1417.230118 670.045981 -679.752372
1415.686820 669.281824 -678.735368
1414.143523 668.517667 -677.718365
1412.600225 667.753509 -676.701362
1411.056927 666.989352 -675.684358
1409.513629 666.225195 -674.667355
1407.970331 665.461038 -673.650352
1406.427034 664.696881 -672.633349
1404.883736 663.932724 -671.616345
1403.340438 663.168566 -670.599342
1401.797140 662.404409 -669.582339
1400.253842 661.640252 -668.565335
1398.710545 660.876095 -667.548332
1397.167247 660.111938 -666.531329
1395.623949 659.347781 -665.514326
1394.080651 658.583623 -664.497322
1392.537353 657.819466 -663.480319
1390.994055 657.055309 -662.463316
1389.450758 656.291152 -661.446312
1387.907460 655.526995 -660.429309
1386.364162 654.762838 -659.412306
1384.820864 653.998680 -658.395303
1383.277566 653.234523 -657.378299
1381.734269 652.470366 -656.361296
1380.190971 651.706209 -655.344293
1378.647673 650.942052 -654.327289
1377.104375 650.177895 -653.310286
1375.561077 649.413737 -652.293283
1374.017780 648.649580 -651.276280
1372.474482 647.885423 -650.259276
1370.931184 647.121266 -649.242273
1369.387886 646.357109 -648.225270
1367.844588 645.592952 -647.208266
1366.301291 644.828794 -646.191263
1364.757993 644.064637 -645.174260
1363.214695 643.300480 -644.157256
1361.671397 642.536323 -643.140253
1360.128099 641.772166 -642.123250
1358.584801 641.008009 -641.106247
1357.041504 640.243851 -640.089243
1355.498206 639.479694 -639.072240
1353.954908 638.715537 -638.055237
1352.411610 637.951380 -637.038233
1350.868312 637.187223 -636.021230
1349.325015 636.423065 -635.004227
1347.781717 635.658908 -633.987224
1346.238419 634.894751 -632.970220
1344.695121 634.130594 -631.953217
1343.151823 633.366437 -630.936214
1341.608526 632.602280 -629.919210
1340.065228 631.838122 -628.902207
1338.521930 631.073965 -627.885204
1336.978632 630.309808 -626.868201
1335.435334 629.545651 -625.851197
1333.892037 628.781494 -624.834194
1332.348739 628.017337 -623.817191
1330.805441 627.253179 -622.800187
1329.262143 626.489022 -621.783184
1327.718845 625.724865 -620.766181
1326.175547 624.960708 -619.749178
1324.632250 624.196551 -618.732174
1323.088952 623.432394 -617.715171
1321.545654 622.668236 -616.698168
1320.002356 621.904079 -615.681164
1318.459058 621.139922 -614.664161
1316.915761 620.375765 -613.647158
1315.372463 619.611608 -612.630154
1313.829165 618.847451 -611.613151
1312.285867 618.083293 -610.596148
1310.742569 617.319136 -609.579145
1309.199272 616.554979 -608.562141
1307.655974 615.790822 -607.545138
1306.112676 615.026665 -606.528135
1304.569378 614.262508 -605.511131
1303.026080 613.498350 -604.494128
1301.482783 612.734193 -603.477125
1299.939485 611.970036 -602.460122
1298.396187 611.205879 -601.443118
1296.852889 610.441722 -600.426115
1295.309591 609.677565 -599.409112
1293.766293 608.913407 -598.392108
1292.222996 608.149250 -597.375105
1290.679698 607.385093 -596.358102
1289.136400 606.620936 -595.341099
1287.593102 605.856779 -594.324095
1286.049804 605.092622 -593.307092
1284.506507 604.328464 -592.290089
1282.963209 603.564307 -591.273085
1281.419911 602.800150 -590.256082
1279.876613 602.035993 -589.239079
1278.333315 601.271836 -588.222076
1276.790018 600.507679 -587.205072
1275.246720 599.743521 -586.188069
1273.703422 598.979364 -585.171066
1272.160124 598.215207 -584.154062
1270.616826 597.451050 -583.137059
1269.073528 596.686893 -582.120056
1267.530231 595.922736 -581.103053
1265.986933 595.158578 -580.086049
1264.443635 594.394421 -579.069046
1262.900337 593.630264 -578.052043
1261.357039 592.866107 -577.035039
1259.813742 592.101950 -576.018036
1258.270444 591.337793 -575.001033
1256.727146 590.573635 -573.984029
1255.183848 589.809478 -572.967026
1253.640550 589.045321 -571.950023
1252.097253 588.281164 -570.933020
1250.553955 587.517007 -569.916016
1249.010657 586.752850 -568.899013
1247.467359 585.988692 -567.882010
1245.924061 585.224535 -566.865006
1244.380764 584.460378 -565.848003
1242.837466 583.696221 -564.831000
1241.294168 582.932064 -563.813997
1239.750870 582.167907 -562.796993
1238.207572 581.403749 -561.779990
1236.664274 580.639592 -560.762987
1235.120977 579.875435 -559.745983
1233.577679 579.111278 -558.728980
1232.034381 578.347121 -557.711977
1230.491083 577.582964 -556.694974
1228.947785 576.818806 -555.677970
1227.404488 576.054649 -554.660967
1225.861190 575.290492 -553.643964
1224.317892 574.526335 -552.626960
1222.774594 573.762178 -551.609957
1221.231296 572.998021 -550.592954
1219.687999 572.233863 -549.575951
1218.144701 571.469706 -548.558947
1216.601403 570.705549 -547.541944
1215.058105 569.941392 -546.524941
1213.514807 569.177235 -545.507937
1211.971510 568.413078 -544.490934
1210.428212 567.648920 -543.473931
1208.884914 566.884763 -542.456927
1207.341616 566.120606 -541.439924
1205.798318 565.356449 -540.422921
1204.255020 564.592292 -539.405918
1202.711723 563.828135 -538.388914
1201.168425 563.063977 -537.371911
1199.625127 562.299820 -536.354908
1198.081829 561.535663 -535.337904
1196.538531 560.771506 -534.320901
1194.995234 560.007349 -533.303898
1193.451936 559.243192 -532.286895
1191.908638 558.479034 -531.269891
1190.365340 557.714877 -530.252888
1188.822042 556.950720 -529.235885
1187.278745 556.186563 -528.218881
1185.735447 555.422406 -527.201878
1184.192149 554.658249 -526.184875
1182.648851 553.894091 -525.167872
1181.105553 553.129934 -524.150868
1179.562256 552.365777 -523.133865
1178.018958 551.601620 -522.116862
1176.475660 550.837463 -521.099858
1174.932362 550.073305 -520.082855
1173.389064 549.309148 -519.065852
1171.845766 548.544991 -518.048849
1170.302469 547.780834 -517.031845
1168.759171 547.016677 -516.014842
1167.215873 546.252520 -514.997839
1165.672575 545.488362 -513.980835
1164.129277 544.724205 -512.963832
1162.585980 543.960048 -511.946829
1161.042682 543.195891 -510.929825
1159.499384 542.431734 -509.912822
1157.956086 541.667577 -508.895819
1156.412788 540.903419 -507.878816
1154.869491 540.139262 -506.861812
1153.326193 539.375105 -505.844809
1151.782895 538.610948 -504.827806
1150.239597 537.846791 -503.810802
1148.696299 537.082634 -502.793799
1147.153001 536.318476 -501.776796
1145.609704 535.554319 -500.759793
1144.066406 534.790162 -499.742789
1142.523108 534.026005 -498.725786
1140.979810 533.261848 -497.708783
1139.436512 532.497691 -496.691779
1137.893215 531.733533 -495.674776
1136.349917 530.969376 -494.657773
1134.806619 530.205219 -493.640770
1133.263321 529.441062 -492.623766
1131.720023 528.676905 -491.606763
1130.176726 527.912748 -490.589760
1128.633428 527.148590 -489.572756
1127.090130 526.384433 -488.555753
1125.546832 525.620276 -487.538750
1124.003534 524.856119 -486.521747
1122.460237 524.091962 -485.504743
1120.916939 523.327805 -484.487740
1119.373641 522.563647 -483.470737
1117.830343 521.799490 -482.453733
1116.287045 521.035333 -481.436730
1114.743747 520.271176 -480.419727
1113.200450 519.507019 -479.402724
1111.657152 518.742862 -478.385720
1110.113854 517.978704 -477.368717
1108.570556 517.214547 -476.351714
1107.027258 516.450390 -475.334710
1105.483961 515.686233 -474.317707
1103.940663 514.922076 -473.300704
1102.397365 514.157919 -472.283700
1100.854067 513.393761 -471.266697
1099.310769 512.629604 -470.249694
1097.767472 511.865447 -469.232691
1096.224174 511.101290 -468.215687
1094.680876 510.337133 -467.198684
1093.137578 509.572976 -466.181681
1091.594280 508.808818 -465.164677
1090.050983 508.044661 -464.147674
1088.507685 507.280504 -463.130671
1086.964387 506.516347 -462.113668
1085.421089 505.752190 -461.096664
1083.877791 504.988033 -460.079661
1082.334493 504.223875 -459.062658
1080.791196 503.459718 -458.045654
1079.247898 502.695561 -457.028651
1077.704600 501.931404 -456.011648
1076.161302 501.167247 -454.994645
1074.618004 500.403090 -453.977641
1073.074707 499.638932 -452.960638
1071.531409 498.874775 -451.943635
1069.988111 498.110618 -450.926631
1068.444813 497.346461 -449.909628
1066.901515 496.582304 -448.892625
1065.358218 495.818147 -447.875622
1063.814920 495.053989 -446.858618
1062.271622 494.289832 -445.841615
1060.728324 493.525675 -444.824612
1059.185026 492.761518 -443.807608
1057.641729 491.997361 -442.790605
1056.098431 491.233204 -441.773602
1054.555133 490.469046 -440.756598
1053.011835 489.704889 -439.739595
1051.468537 488.940732 -438.722592
1049.925239 488.176575 -437.705589
1048.381942 487.412418 -436.688585
1046.838644 486.648261 -435.671582
1045.295346 485.884103 -434.654579
1043.752048 485.119946 -433.637575
1042.208750 484.355789 -432.620572
1040.665453 483.591632 -431.603569
1039.122155 482.827475 -430.586566
1037.578857 482.063318 -429.569562
1036.035559 481.299160 -428.552559
1034.492261 480.535003 -427.535556
1032.948964 479.770846 -426.518552
1031.405666 479.006689 -425.501549
1029.862368 478.242532 -424.484546
1028.319070 477.478375 -423.467543
1026.775772 476.714217 -422.450539
1025.232474 475.950060 -421.433536
1023.689177 475.185903 -420.416533
1022.145879 474.421746 -419.399529
1020.602581 473.657589 -418.382526
1019.059283 472.893432 -417.365523
1017.515985 472.129274 -416.348520
1015.972688 471.365117 -415.331516
1014.429390 470.600960 -414.314513
1012.886092 469.836803 -413.297510
1011.342794 469.072646 -412.280506
1009.799496 468.308489 -411.263503
1008.256199 467.544331 -410.246500
1006.712901 466.780174 -409.229497
1005.169603 466.016017 -408.212493
1003.626305 465.251860 -407.195490
1002.083007 464.487703 -406.178487
1000.539710 463.723545 -405.161483
998.996412 462.959388 -404.144480
997.453114 462.195231 -403.127477
995.909816 461.431074 -402.110473
994.366518 460.666917 -401.093470
992.823220 459.902760 -400.076467
991.279923 459.138602 -399.059464
989.736625 458.374445 -398.042460
988.193327 457.610288 -397.025457
986.650029 456.846131 -396.008454
985.106731 456.081974 -394.991450
983.563434 455.317817 -393.974447
982.020136 454.553659 -392.957444
980.476838 453.789502 -391.940441
978.933540 453.025345 -390.923437
977.390242 452.261188 -389.906434
975.846945 451.497031 -388.889431
974.303647 450.732874 -387.872427
972.760349 449.968716 -386.855424
971.217051 449.204559 -385.838421
969.673753 448.440402 -384.821418
968.130456 447.676245 -383.804414
966.587158 446.912088 -382.787411
965.043860 446.147931 -381.770408
963.500562 445.383773 -380.753404
961.957264 444.619616 -379.736401
960.413966 443.855459 -378.719398
958.870669 443.091302 -377.702395
957.327371 442.327145 -376.685391
955.784073 441.562988 -375.668388
954.240775 440.798830 -374.651385
952.697477 440.034673 -373.634381
951.154180 439.270516 -372.617378
949.610882 438.506359 -371.600375
948.067584 437.742202 -370.583371
946.524286 436.978045 -369.566368
944.980988 436.213887 -368.549365
943.437691 435.449730 -367.532362
941.894393 434.685573 -366.515358
940.351095 433.921416 -365.498355
938.807797 433.157259 -364.481352
937.264499 432.393102 -363.464348
935.721202 431.628944 -362.447345
934.177904 430.864787 -361.430342
932.634606 430.100630 -360.413339
931.091308 429.336473 -359.396335
929.548010 428.572316 -358.379332
928.004712 427.808159 -357.362329
926.461415 427.044001 -356.345325
924.918117 426.279844 -355.328322
923.374819 425.515687 -354.311319
921.831521 424.751530 -353.294316
920.288223 423.987373 -352.277312
918.744926 423.223216 -351.260309
917.201628 422.459058 -350.243306
915.658330 421.694901 -349.226302
914.115032 420.930744 -348.209299
912.571734 420.166587 -347.192296
911.028437 419.402430 -346.175293
909.485139 418.638273 -345.158289
907.941841 417.874115 -344.141286
906.398543 417.109958 -343.124283
904.855245 416.345801 -342.107279
903.311947 415.581644 -341.090276
901.768650 414.817487 -340.073273
900.225352 414.053330 -339.056270
898.682054 413.289172 -338.039266
897.138756 412.525015 -337.022263
895.595458 411.760858 -336.005260
894.052161 410.996701 -334.988256
892.508863 410.232544 -333.971253
890.965565 409.468387 -332.954250
889.422267 408.704229 -331.937246
887.878969 407.940072 -330.920243
886.335672 407.175915 -329.903240
884.792374 406.411758 -328.886237
883.249076 405.647601 -327.869233
881.705778 404.883444 -326.852230
880.162480 404.119286 -325.835227
878.619183 403.355129 -324.818223
877.075885 402.590972 -323.801220
875.532587 401.826815 -322.784217
873.989289 401.062658 -321.767214
872.445991 400.298501 -320.750210
870.902693 399.534343 -319.733207
869.359396 398.770186 -318.716204
867.816098 398.006029 -317.699200
866.272800 397.241872 -316.682197
864.729502 396.477715 -315.665194
863.186204 395.713558 -314.648191
861.642907 394.949400 -313.631187
860.099609 394.185243 -312.614184
858.556311 393.421086 -311.597181
857.013013 392.656929 -310.580177
855.469715 391.892772 -309.563174
853.926418 391.128615 -308.546171
852.383120 390.364457 -307.529168
850.839822 389.600300 -306.512164
849.296524 388.836143 -305.495161
847.753226 388.071986 -304.478158
846.209929 387.307829 -303.461154
844.666631 386.543672 -302.444151
843.123333 385.779514 -301.427148
841.580035 385.015357 -300.410144
840.036737 384.251200 -299.393141
838.493439 383.487043 -298.376138
836.950142 382.722886 -297.359135
835.406844 381.958729 -296.342131
833.863546 381.194571 -295.325128
832.320248 380.430414 -294.308125
830.776950 379.666257 -293.291121
829.233653 378.902100 -292.274118
827.690355 378.137943 -291.257115
826.147057 377.373786 -290.240112
824.603759 376.609628 -289.223108
823.060461 375.845471 -288.206105
821.517164 375.081314 -287.189102
819.973866 374.317157 -286.172098
818.430568 373.553000 -285.155095
816.887270 372.788842 -284.138092
815.343972 372.024685 -283.121089
813.800675 371.260528 -282.104085
812.257377 370.496371 -281.087082
810.714079 369.732214 -280.070079
809.170781 368.968057 -279.053075
807.627483 368.203899 -278.036072
806.084185 367.439742 -277.019069
804.540888 366.675585 -276.002066
802.997590 365.911428 -274.985062
801.454292 365.147271 -273.968059
799.910994 364.383114 -272.951056
798.367696 363.618956 -271.934052
796.824399 362.854799 -270.917049
795.281101 362.090642 -269.900046
793.737803 361.326485 -268.883042
792.194505 360.562328 -267.866039
790.651207 359.798171 -266.849036
789.107910 359.034013 -265.832033
787.564612 358.269856 -264.815029
786.021314 357.505699 -263.798026
784.478016 356.741542 -262.781023
782.934718 355.977385 -261.764019
781.391420 355.213228 -260.747016
779.848123 354.449070 -259.730013
778.304825 353.684913 -258.713010
776.761527 352.920756 -257.696006
775.218229 352.156599 -256.679003
773.674931 351.392442 -255.662000
772.131634 350.628285 -254.644996
770.588336 349.864127 -253.627993
769.045038 349.099970 -252.610990
767.501740 348.335813 -251.593987
765.958442 347.571656 -250.576983
764.415145 346.807499 -249.559980
762.871847 346.043342 -248.542977
761.328549 345.279184 -247.525973
759.785251 344.515027 -246.508970
758.241953 343.750870 -245.491967
756.698656 342.986713 -244.474964
755.155358 342.222556 -243.457960
753.612060 341.458399 -242.440957
752.068762 340.694241 -241.423954
750.525464 339.930084 -240.406950
748.982166 339.165927 -239.389947
747.438869 338.401770 -238.372944
745.895571 337.637613 -237.355941
744.352273 336.873456 -236.338937
742.808975 336.109298 -235.321934
741.265677 335.345141 -234.304931
739.722380 334.580984 -233.287927
738.179082 333.816827 -232.270924
736.635784 333.052670 -231.253921
735.092486 332.288513 -230.236917
733.549188 331.524355 -229.219914
732.005891 330.760198 -228.202911
730.462593 329.996041 -227.185908
728.919295 329.231884 -226.168904
727.375997 328.467727 -225.151901
725.832699 327.703570 -224.134898
724.289402 326.939412 -223.117894
722.746104 326.175255 -222.100891
721.202806 325.411098 -221.083888
719.659508 324.646941 -220.066885
718.116210 323.882784 -219.049881
716.572912 323.118627 -218.032878
715.029615 322.354469 -217.015875
713.486317 321.590312 -215.998871
711.943019 320.826155 -214.981868
710.399721 320.061998 -213.964865
708.856423 319.297841 -212.947862
707.313126 318.533684 -211.930858
705.769828 317.769526 -210.913855
704.226530 317.005369 -209.896852
702.683232 316.241212 -208.879848
701.139934 315.477055 -207.862845
699.596637 314.712898 -206.845842
698.053339 313.948741 -205.828839
696.510041 313.184583 -204.811835
694.966743 312.420426 -203.794832
693.423445 311.656269 -202.777829
691.880148 310.892112 -201.760825
690.336850 310.127955 -200.743822
688.793552 309.363798 -199.726819
687.250254 308.599640 -198.709815
685.706956 307.835483 -197.692812
684.163658 307.071326 -196.675809
682.620361 306.307169 -195.658806
681.077063 305.543012 -194.641802
679.533765 304.778855 -193.624799
677.990467 304.014697 -192.607796
676.447169 303.250540 -191.590792
674.903872 302.486383 -190.573789
673.360574 301.722226 -189.556786
671.817276 300.958069 -188.539783
670.273978 300.193912 -187.522779
668.730680 299.429754 -186.505776
667.187383 298.665597 -185.488773
665.644085 297.901440 -184.471769
664.100787 297.137283 -183.454766
662.557489 296.373126 -182.437763
661.014191 295.608969 -181.420760
659.470894 294.844811 -180.403756
657.927596 294.080654 -179.386753
656.384298 293.316497 -178.369750
654.841000 292.552340 -177.352746
653.297702 291.788183 -176.335743
651.754404 291.024026 -175.318740
650.211107 290.259868 -174.301737
648.667809 289.495711 -173.284733
647.124511 288.731554 -172.267730
645.581213 287.967397 -171.250727
644.037915 287.203240 -170.233723
642.494618 286.439082 -169.216720
640.951320 285.674925 -168.199717
639.408022 284.910768 -167.182714
637.864724 284.146611 -166.165710
636.321426 283.382454 -165.148707
634.778129 282.618297 -164.131704
633.234831 281.854139 -163.114700
631.691533 281.089982 -162.097697
630.148235 280.325825 -161.080694
628.604937 279.561668 -160.063690
627.061639 278.797511 -159.046687
625.518342 278.033354 -158.029684
623.975044 277.269196 -157.012681
622.431746 276.505039 -155.995677
620.888448 275.740882 -154.978674
619.345150 274.976725 -153.961671
617.801853 274.212568 -152.944667
616.258555 273.448411 -151.927664
614.715257 272.684253 -150.910661
613.171959 271.920096 -149.893658
611.628661 271.155939 -148.876654
610.085364 270.391782 -147.859651
608.542066 269.627625 -146.842648
606.998768 268.863468 -145.825644
605.455470 268.099310 -144.808641
603.912172 267.335153 -143.791638
602.368875 266.570996 -142.774635
600.825577 265.806839 -141.757631
599.282279 265.042682 -140.740628
597.738981 264.278525 -139.723625
596.195683 263.514367 -138.706621
594.652385 262.750210 -137.689618
593.109088 261.986053 -136.672615
591.565790 261.221896 -135.655612
590.022492 260.457739 -134.638608
588.479194 259.693582 -133.621605
586.935896 258.929424 -132.604602
585.392599 258.165267 -131.587598
583.849301 257.401110 -130.570595
582.306003 256.636953 -129.553592
580.762705 255.872796 -128.536588
579.219407 255.108639 -127.519585
577.676110 254.344481 -126.502582
576.132812 253.580324 -125.485579
574.589514 252.816167 -124.468575
573.046216 252.052010 -123.451572
571.502918 251.287853 -122.434569
569.959621 250.523696 -121.417565
568.416323 249.759538 -120.400562
566.873025 248.995381 -119.383559
565.329727 248.231224 -118.366556
563.786429 247.467067 -117.349552
562.243131 246.702910 -116.332549
560.699834 245.938753 -115.315546
559.156536 245.174595 -114.298542
557.613238 244.410438 -113.281539
556.069940 243.646281 -112.264536
554.526642 242.882124 -111.247533
552.983345 242.117967 -110.230529
551.440047 241.353810 -109.213526
549.896749 240.589652 -108.196523
548.353451 239.825495 -107.179519
546.810153 239.061338 -106.162516
545.266856 238.297181 -105.145513
543.723558 237.533024 -104.128510
542.180260 236.768867 -103.111506
540.636962 236.004709 -102.094503
539.093664 235.240552 -101.077500
537.550367 234.476395 -100.060496
536.007069 233.712238 -99.043493
534.463771 232.948081 -98.026490
532.920473 232.183924 -97.009487
531.377175 231.419766 -95.992483
529.833877 230.655609 -94.975480
528.290580 229.891452 -93.958477
526.747282 229.127295 -92.941473
525.203984 228.363138 -91.924470
523.660686 227.598981 -90.907467
522.117388 226.834823 -89.890463
520.574091 226.070666 -88.873460
519.030793 225.306509 -87.856457
517.487495 224.542352 -86.839454
515.944197 223.778195 -85.822450
514.400899 223.014038 -84.805447
512.857602 222.249880 -83.788444
511.314304 221.485723 -82.771440
509.771006 220.721566 -81.754437
508.227708 219.957409 -80.737434
506.684410 219.193252 -79.720431
505.141112 218.429095 -78.703427
503.597815 217.664937 -77.686424
502.054517 216.900780 -76.669421
500.511219 216.136623 -75.652417
498.967921 215.372466 -74.635414
497.424623 214.608309 -73.618411
495.881326 213.844152 -72.601408
494.338028 213.079994 -71.584404
492.794730 212.315837 -70.567401
491.251432 211.551680 -69.550398
489.708134 210.787523 -68.533394
488.164837 210.023366 -67.516391
486.621539 209.259209 -66.499388
485.078241 208.495051 -65.482385
483.534943 207.730894 -64.465381
481.991645 206.966737 -63.448378
480.448348 206.202580 -62.431375
478.905050 205.438423 -61.414371
477.361752 204.674266 -60.397368
475.818454 203.910108 -59.380365
474.275156 203.145951 -58.363361
472.731858 202.381794 -57.346358
471.188561 201.617637 -56.329355
469.645263 200.853480 -55.312352
468.101965 200.089322 -54.295348
466.558667 199.325165 -53.278345
465.015369 198.561008 -52.261342
463.472072 197.796851 -51.244338
461.928774 197.032694 -50.227335
460.385476 196.268537 -49.210332
458.842178 195.504379 -48.193329
457.298880 194.740222 -47.176325
455.755583 193.976065 -46.159322
454.212285 193.211908 -45.142319
452.668987 192.447751 -44.125315
451.125689 191.683594 -43.108312
449.582391 190.919436 -42.091309
448.039094 190.155279 -41.074306
446.495796 189.391122 -40.057302
444.952498 188.626965 -39.040299
443.409200 187.862808 -38.023296
441.865902 187.098651 -37.006292
440.322604 186.334493 -35.989289
438.779307 185.570336 -34.972286
437.236009 184.806179 -33.955283
435.692711 184.042022 -32.938279
434.149413 183.277865 -31.921276
432.606115 182.513708 -30.904273
431.062818 181.749550 -29.887269
429.519520 180.985393 -28.870266
427.976222 180.221236 -27.853263
426.432924 179.457079 -26.836259
424.889626 178.692922 -25.819256
423.346329 177.928765 -24.802253
421.803031 177.164607 -23.785250
420.259733 176.400450 -22.768246
418.716435 175.636293 -21.751243
417.173137 174.872136 -20.734240
415.629840 174.107979 -19.717236
414.086542 173.343822 -18.700233
412.543244 172.579664 -17.683230
410.999946 171.815507 -16.666227
409.456648 171.051350 -15.649223
407.913350 170.287193 -14.632220
406.370053 169.523036 -13.615217
404.826755 168.758879 -12.598213
403.283457 167.994721 -11.581210
401.740159 167.230564 -10.564207
400.196861 166.466407 -9.547204
398.653564 165.702250 -8.530200
397.110266 164.938093 -7.513197
395.566968 164.173936 -6.496194
394.023670 163.409778 -5.479190
392.480372 162.645621 -4.462187
390.937075 161.881464 -3.445184
389.393777 161.117307 -2.428181
387.850479 160.353150 -1.411177
386.307181 159.588993 -0.394174
384.763883 158.824835 0.622829
383.220585 158.060678 1.639833
381.677288 157.296521 2.656836
380.133990 156.532364 3.673839
378.590692 155.768207 4.690842
377.047394 155.004050 5.707846
375.504096 154.239892 6.724849
373.960799 153.475735 7.741852
372.417501 152.711578 8.758856
370.874203 151.947421 9.775859
369.330905 151.183264 10.792862
367.787607 150.419107 11.809866
366.244310 149.654949 12.826869
364.701012 148.890792 13.843872
363.157714 148.126635 14.860875
361.614416 147.362478 15.877879
360.071118 146.598321 16.894882
358.527821 145.834164 17.911885
356.984523 145.070006 18.928889
355.441225 144.305849 19.945892
353.897927 143.541692 20.962895
352.354629 142.777535 21.979898
350.811331 142.013378 22.996902
349.268034 141.249221 24.013905
347.724736 140.485063 25.030908
346.181438 139.720906 26.047912
344.638140 138.956749 27.064915
343.094842 138.192592 28.081918
341.551545 137.428435 29.098921
340.008247 136.664278 30.115925
