-4328.000000 -54.000000 1592.698276
-4328.000000 -56.000000 1592.698276
-4328.000000 -58.000000 1592.698276
-4328.000000 -60.000000 1592.698276
-4328.000000 -62.000000 1592.698276
-4328.000000 -64.000000 1592.698276
-4328.000000 -66.000000 1592.698276
-4328.000000 -68.000000 1592.698276
-4328.000000 -70.000000 1592.698276
-4328.000000 -72.000000 1592.698276
-4328.000000 -74.000000 1592.698276
-4328.000000 -76.000000 1592.698276
-4328.000000 -78.000000 1592.698276
-4328.000000 -80.000000 1592.698276
-4328.000000 -82.000000 1592.698276
-4328.000000 -84.000000 1592.698276
-4328.000000 -86.000000 1592.698276
-4328.000000 -88.000000 1592.698276
-4328.000000 -90.000000 1592.698276
-4328.000000 -92.000000 1592.698276
-4328.000000 -94.000000 1592.698276
-4328.000000 -96.000000 1592.698276
-4328.000000 -98.000000 1592.698276
-4328.000000 -100.000000 1592.698276
-4328.000000 -102.000000 1592.698276
-4328.000000 -104.000000 1592.698276
-4328.000000 -106.000000 1592.698276
-4328.000000 -108.000000 1592.698276
-4328.000000 -110.000000 1592.698276
-4328.000000 -112.000000 1592.698276
-4328.000000 -114.000000 1592.698276
-4328.000000 -116.000000 1592.698276
-4328.000000 -118.000000 1592.698276
-4328.000000 -120.000000 1592.698276
-4328.000000 -122.000000 1592.698276
-4328.000000 -124.000000 1592.698276
-4328.000000 -126.000000 1592.698276
-4328.000000 -128.000000 1592.698276
-4328.000000 -130.000000 1592.698276
-4328.000000 -132.000000 1592.698276
-4328.000000 -134.000000 1592.698276
-4328.000000 -136.000000 1592.698276
-4328.000000 -138.000000 1592.698276
-4328.000000 -140.000000 1592.698276
-4328.000000 -142.000000 1592.698276
-4328.000000 -144.000000 1592.698276
-4328.000000 -146.000000 1592.698276
-4328.000000 -148.000000 1592.698276
-4328.000000 -150.000000 1592.698276
-4328.000000 -152.000000 1592.698276
-4328.000000 -154.000000 1592.698276
-4328.000000 -156.000000 1592.698276
-4328.000000 -158.000000 1592.698276
-4328.000000 -160.000000 1592.698276
-4328.000000 -162.000000 1592.698276
-4328.000000 -164.000000 1592.698276
-4328.000000 -166.000000 1592.698276
-4328.000000 -168.000000 1592.698276
-4328.000000 -170.000000 1592.698276
-4328.000000 -172.000000 1592.698276
-4328.000000 -174.000000 1592.698276
-4328.000000 -176.000000 1592.698276
-4328.000000 -178.000000 1592.698276
-4328.000000 -180.000000 1592.698276
-4328.000000 -182.000000 1592.698276
-4328.000000 -184.000000 1592.698276
-4328.000000 -186.000000 1592.698276
-4328.000000 -188.000000 1592.698276
-4328.000000 -190.000000 1592.698276
-4328.000000 -192.000000 1592.698276
-4328.000000 -194.000000 1592.698276
-4328.000000 -196.000000 1592.698276
-4328.000000 -198.000000 1592.698276
-4328.000000 -200.000000 1592.698276
-4328.000000 -202.000000 1592.698276
-4328.000000 -204.000000 1592.698276
-4328.000000 -206.000000 1592.698276
-4328.000000 -208.000000 1592.698276
-4328.000000 -210.000000 1592.698276
-4328.000000 -212.000000 1592.698276
-4328.000000 -214.000000 1592.698276
-4328.000000 -216.000000 1592.698276
-4328.000000 -218.000000 1592.698276
-4328.000000 -220.000000 1592.698276
-4328.000000 -222.000000 1592.698276
-4328.000000 -224.000000 1592.698276
-4328.000000 -226.000000 1592.698276
-4328.000000 -228.000000 1592.698276
-4328.000000 -230.000000 1592.698276
-4328.000000 -232.000000 1592.698276
-4328.000000 -234.000000 1592.698276
-4328.000000 -236.000000 1592.698276
-4328.000000 -238.000000 1592.698276
-4328.000000 -240.000000 1592.698276
-4328.000000 -242.000000 1592.698276
-4328.000000 -244.000000 1592.698276
-4328.000000 -246.000000 1592.698276
-4328.000000 -248.000000 1592.698276
-4328.000000 -250.000000 1592.698276
-4328.000000 -252.000000 1592.698276
-4328.000000 -254.000000 1592.698276
-4328.000000 -256.000000 1592.698276
-4328.000000 -258.000000 1592.698276
-4328.000000 -260.000000 1592.698276
-4328.000000 -262.000000 1592.698276
-4328.000000 -264.000000 1592.698276
-4328.000000 -266.000000 1592.698276
-4328.000000 -268.000000 1592.698276
-4328.000000 -270.000000 1592.698276
-4328.000000 -272.000000 1592.698276
-4328.000000 -274.000000 1592.698276
-4328.000000 -276.000000 1592.698276
-4328.000000 -278.000000 1592.698276
-4328.000000 -280.000000 1592.698276
-4328.000000 -282.000000 1592.698276
-4328.000000 -284.000000 1592.698276
-4328.000000 -286.000000 1592.698276
-4328.000000 -288.000000 1592.698276
-4328.000000 -290.000000 1592.698276
-4328.000000 -292.000000 1592.698276
-4328.000000 -294.000000 1592.698276
-4328.000000 -296.000000 1592.698276
-4328.000000 -298.000000 1592.698276
-4328.000000 -300.000000 1592.698276
-4328.000000 -302.000000 1592.698276
-4328.000000 -304.000000 1592.698276
-4328.000000 -306.000000 1592.698276
-4328.000000 -308.000000 1592.698276
-4328.000000 -310.000000 1592.698276
-4328.000000 -312.000000 1592.698276
-4328.000000 -314.000000 1592.698276
-4328.000000 -316.000000 1592.698276
-4328.000000 -318.000000 1592.698276
-4328.000000 -320.000000 1592.698276
-4328.000000 -322.000000 1592.698276
-4328.000000 -324.000000 1592.698276
-4328.000000 -326.000000 1592.698276
-4328.000000 -328.000000 1592.698276
-4328.000000 -330.000000 1592.698276
-4328.000000 -332.000000 1592.698276
-4328.000000 -334.000000 1592.698276
-4328.000000 -336.000000 1592.698276
-4328.000000 -338.000000 1592.698276
-4328.000000 -340.000000 1592.698276
-4328.000000 -342.000000 1592.698276
-4328.000000 -344.000000 1592.698276
-4328.000000 -346.000000 1592.698276
-4328.000000 -348.000000 1592.698276
-4328.000000 -350.000000 1592.698276
-4328.000000 -352.000000 1592.698276
-4328.000000 -354.000000 1592.698276
-4328.000000 -356.000000 1592.698276
-4328.000000 -358.000000 1592.698276
-4328.000000 -360.000000 1592.698276
-4328.000000 -362.000000 1592.698276
-4328.000000 -364.000000 1592.698276
-4328.000000 -366.000000 1592.698276
-4328.000000 -368.000000 1592.698276
-4328.000000 -370.000000 1592.698276
-4328.000000 -372.000000 1592.698276
-4328.000000 -374.000000 1592.698276
-4328.000000 -376.000000 1592.698276
-4328.000000 -378.000000 1592.698276
-4328.000000 -380.000000 1592.698276
-4328.000000 -382.000000 1592.698276
-4328.000000 -384.000000 1592.698276
-4328.000000 -386.000000 1592.698276
-4328.000000 -388.000000 1592.698276
-4328.000000 -392.000000 1592.698276
-4328.187006 -393.943942 1592.266864
-4328.374013 -395.887885 1591.835451
-4328.561019 -397.831827 1591.404039
-4328.748025 -399.775770 1590.972627
-4328.935032 -401.719712 1590.541215
-4329.122038 -403.663654 1590.109802
-4329.309044 -405.607597 1589.678390
-4329.496051 -407.551539 1589.246978
-4329.683057 -409.495482 1588.815566
-4329.870063 -411.439424 1588.384154
-4330.057070 -413.383367 1587.952741
-4330.244076 -415.327309 1587.521329
-4330.431082 -417.271251 1587.089917
-4330.618089 -419.215194 1586.658505
-4330.805095 -421.159136 1586.227092
-4330.992101 -423.103079 1585.795680
-4331.179108 -425.047021 1585.364268
-4331.366114 -426.990963 1584.932856
-4331.553120 -428.934906 1584.501443
-4331.740127 -430.878848 1584.070031
-4331.927133 -432.822791 1583.638619
-4332.114139 -434.766733 1583.207207
-4332.301146 -436.710676 1582.775794
-4332.488152 -438.654618 1582.344382
-4332.675158 -440.598560 1581.912970
-4332.862165 -442.542503 1581.481558
-4333.049171 -444.486445 1581.050146
-4333.236177 -446.430388 1580.618733
-4333.423184 -448.374330 1580.187321
-4333.610190 -450.318272 1579.755909
-4333.797196 -452.262215 1579.324497
-4333.984203 -454.206157 1578.893084
-4334.171209 -456.150100 1578.461672
-4334.358215 -458.094042 1578.030260
-4334.545222 -460.037985 1577.598848
-4334.732228 -461.981927 1577.167435
-4334.919234 -463.925869 1576.736023
-4335.106241 -465.869812 1576.304611
-4335.293247 -467.813754 1575.873199
-4335.480253 -469.757697 1575.441786
-4335.667260 -471.701639 1575.010374
-4335.854266 -473.645581 1574.578962
-4336.041272 -475.589524 1574.147550
-4336.228279 -477.533466 1573.716138
-4336.415285 -479.477409 1573.284725
-4336.602291 -481.421351 1572.853313
-4336.789298 -483.365294 1572.421901
-4336.976304 -485.309236 1571.990489
-4337.163311 -487.253178 1571.559076
-4337.350317 -489.197121 1571.127664
-4337.537323 -491.141063 1570.696252
-4337.724330 -493.085006 1570.264840
-4337.911336 -495.028948 1569.833427
-4338.098342 -496.972890 1569.402015
-4338.285349 -498.916833 1568.970603
-4338.472355 -500.860775 1568.539191
-4338.659361 -502.804718 1568.107778
-4338.846368 -504.748660 1567.676366
-4339.033374 -506.692602 1567.244954
-4339.220380 -508.636545 1566.813542
-4339.407387 -510.580487 1566.382130
-4339.594393 -512.524430 1565.950717
-4339.781399 -514.468372 1565.519305
-4339.968406 -516.412315 1565.087893
-4340.155412 -518.356257 1564.656481
-4340.342418 -520.300199 1564.225068
-4340.529425 -522.244142 1563.793656
-4340.716431 -524.188084 1563.362244
-4340.903437 -526.132027 1562.930832
-4341.090444 -528.075969 1562.499419
-4341.277450 -530.019911 1562.068007
-4341.464456 -531.963854 1561.636595
-4341.651463 -533.907796 1561.205183
-4341.838469 -535.851739 1560.773770
-4342.025475 -537.795681 1560.342358
-4342.212482 -539.739624 1559.910946
-4342.399488 -541.683566 1559.479534
-4342.586494 -543.627508 1559.048122
-4342.773501 -545.571451 1558.616709
-4342.960507 -547.515393 1558.185297
-4343.147513 -549.459336 1557.753885
-4343.334520 -551.403278 1557.322473
-4343.521526 -553.347220 1556.891060
-4343.708532 -555.291163 1556.459648
-4343.895539 -557.235105 1556.028236
-4344.082545 -559.179048 1555.596824
-4344.269551 -561.122990 1555.165411
-4344.456558 -563.066933 1554.733999
-4344.643564 -565.010875 1554.302587
-4344.830570 -566.954817 1553.871175
-4345.017577 -568.898760 1553.439763
-4345.204583 -570.842702 1553.008350
-4345.391589 -572.786645 1552.576938
-4345.578596 -574.730587 1552.145526
-4345.765602 -576.674529 1551.714114
-4345.952608 -578.618472 1551.282701
-4346.139615 -580.562414 1550.851289
-4346.326621 -582.506357 1550.419877
-4346.513627 -584.450299 1549.988465
-4346.700634 -586.394242 1549.557052
-4346.887640 -588.338184 1549.125640
-4347.074646 -590.282126 1548.694228
-4347.261653 -592.226069 1548.262816
-4347.448659 -594.170011 1547.831403
-4347.635665 -596.113954 1547.399991
-4347.822672 -598.057896 1546.968579
-4348.009678 -600.001838 1546.537167
-4348.196684 -601.945781 1546.105755
-4348.383691 -603.889723 1545.674342
-4348.570697 -605.833666 1545.242930
-4348.757703 -607.777608 1544.811518
-4348.944710 -609.721551 1544.380106
-4349.131716 -611.665493 1543.948693
-4349.318722 -613.609435 1543.517281
-4349.505729 -615.553378 1543.085869
-4349.692735 -617.497320 1542.654457
-4349.879741 -619.441263 1542.223044
-4350.066748 -621.385205 1541.791632
-4350.253754 -623.329147 1541.360220
-4350.440760 -625.273090 1540.928808
-4350.627767 -627.217032 1540.497395
-4350.814773 -629.160975 1540.065983
-4351.001779 -631.104917 1539.634571
-4351.188786 -633.048859 1539.203159
-4351.375792 -634.992802 1538.771747
-4351.562798 -636.936744 1538.340334
-4351.749805 -638.880687 1537.908922
-4351.936811 -640.824629 1537.477510
-4352.123817 -642.768572 1537.046098
-4352.310824 -644.712514 1536.614685
-4352.497830 -646.656456 1536.183273
-4352.684836 -648.600399 1535.751861
-4352.871843 -650.544341 1535.320449
-4353.058849 -652.488284 1534.889036
-4353.245855 -654.432226 1534.457624
-4353.432862 -656.376168 1534.026212
-4353.619868 -658.320111 1533.594800
-4353.806874 -660.264053 1533.163387
-4353.993881 -662.207996 1532.731975
-4354.180887 -664.151938 1532.300563
-4354.367893 -666.095881 1531.869151
-4354.554900 -668.039823 1531.437739
-4354.741906 -669.983765 1531.006326
-4354.928913 -671.927708 1530.574914
-4355.115919 -673.871650 1530.143502
-4355.302925 -675.815593 1529.712090
-4355.489932 -677.759535 1529.280677
-4355.676938 -679.703477 1528.849265
-4355.863944 -681.647420 1528.417853
-4356.050951 -683.591362 1527.986441
-4356.237957 -685.535305 1527.555028
-4356.424963 -687.479247 1527.123616
-4356.611970 -689.423190 1526.692204
-4356.798976 -691.367132 1526.260792
-4356.985982 -693.311074 1525.829379
-4357.172989 -695.255017 1525.397967
-4357.359995 -697.198959 1524.966555
-4357.547001 -699.142902 1524.535143
-4357.734008 -701.086844 1524.103731
-4357.921014 -703.030786 1523.672318
-4358.108020 -704.974729 1523.240906
-4358.295027 -706.918671 1522.809494
-4358.482033 -708.862614 1522.378082
-4358.669039 -710.806556 1521.946669
-4358.856046 -712.750499 1521.515257
-4359.043052 -714.694441 1521.083845
-4359.230058 -716.638383 1520.652433
-4359.417065 -718.582326 1520.221020
-4359.604071 -720.526268 1519.789608
-4359.791077 -722.470211 1519.358196
-4359.978084 -724.414153 1518.926784
-4360.165090 -726.358095 1518.495371
-4360.352096 -728.302038 1518.063959
-4360.539103 -730.245980 1517.632547
-4360.726109 -732.189923 1517.201135
-4360.913115 -734.133865 1516.769723
-4361.100122 -736.077807 1516.338310
-4361.287128 -738.021750 1515.906898
-4361.474134 -739.965692 1515.475486
-4361.661141 -741.909635 1515.044074
-4361.848147 -743.853577 1514.612661
-4362.035153 -745.797520 1514.181249
-4362.222160 -747.741462 1513.749837
-4362.409166 -749.685404 1513.318425
-4362.596172 -751.629347 1512.887012
-4362.783179 -753.573289 1512.455600
-4362.970185 -755.517232 1512.024188
-4363.157191 -757.461174 1511.592776
-4363.344198 -759.405116 1511.161363
-4363.531204 -761.349059 1510.729951
-4363.718210 -763.293001 1510.298539
-4363.905217 -765.236944 1509.867127
-4364.092223 -767.180886 1509.435715
-4364.279229 -769.124829 1509.004302
-4364.466236 -771.068771 1508.572890
-4364.653242 -773.012713 1508.141478
-4364.840248 -774.956656 1507.710066
-4365.027255 -776.900598 1507.278653
-4365.214261 -778.844541 1506.847241
-4365.401267 -780.788483 1506.415829
-4365.588274 -782.732425 1505.984417
-4365.775280 -784.676368 1505.553004
-4365.962286 -786.620310 1505.121592
-4366.149293 -788.564253 1504.690180
-4366.336299 -790.508195 1504.258768
-4366.523305 -792.452138 1503.827356
-4366.710312 -794.396080 1503.395943
-4366.897318 -796.340022 1502.964531
-4367.084324 -798.283965 1502.533119
-4367.271331 -800.227907 1502.101707
-4367.458337 -802.171850 1501.670294
-4367.645343 -804.115792 1501.238882
-4367.832350 -806.059734 1500.807470
-4368.019356 -808.003677 1500.376058
-4368.206362 -809.947619 1499.944645
-4368.393369 -811.891562 1499.513233
-4368.580375 -813.835504 1499.081821
-4368.767381 -815.779447 1498.650409
-4368.954388 -817.723389 1498.218996
-4369.141394 -819.667331 1497.787584
-4369.328400 -821.611274 1497.356172
-4369.515407 -823.555216 1496.924760
-4369.702413 -825.499159 1496.493348
-4369.889419 -827.443101 1496.061935
-4370.076426 -829.387043 1495.630523
-4370.263432 -831.330986 1495.199111
-4370.450438 -833.274928 1494.767699
-4370.637445 -835.218871 1494.336286
-4370.824451 -837.162813 1493.904874
-4371.011457 -839.106756 1493.473462
-4371.198464 -841.050698 1493.042050
-4371.385470 -842.994640 1492.610637
-4371.572476 -844.938583 1492.179225
-4371.759483 -846.882525 1491.747813
-4371.946489 -848.826468 1491.316401
-4372.133495 -850.770410 1490.884988
-4372.320502 -852.714352 1490.453576
-4372.507508 -854.658295 1490.022164
-4372.694515 -856.602237 1489.590752
-4372.881521 -858.546180 1489.159340
-4373.068527 -860.490122 1488.727927
-4373.255534 -862.434064 1488.296515
-4373.442540 -864.378007 1487.865103
-4373.629546 -866.321949 1487.433691
-4373.816553 -868.265892 1487.002278
-4374.003559 -870.209834 1486.570866
-4374.190565 -872.153777 1486.139454
-4374.377572 -874.097719 1485.708042
-4374.564578 -876.041661 1485.276629
-4374.751584 -877.985604 1484.845217
-4374.938591 -879.929546 1484.413805
-4375.125597 -881.873489 1483.982393
-4375.312603 -883.817431 1483.550980
-4375.499610 -885.761373 1483.119568
-4375.686616 -887.705316 1482.688156
-4375.873622 -889.649258 1482.256744
-4376.060629 -891.593201 1481.825332
-4376.247635 -893.537143 1481.393919
-4376.434641 -895.481086 1480.962507
-4376.621648 -897.425028 1480.531095
-4376.808654 -899.368970 1480.099683
-4376.995660 -901.312913 1479.668270
-4377.182667 -903.256855 1479.236858
-4377.369673 -905.200798 1478.805446
-4377.556679 -907.144740 1478.374034
-4377.743686 -909.088682 1477.942621
-4377.930692 -911.032625 1477.511209
-4378.117698 -912.976567 1477.079797
-4378.304705 -914.920510 1476.648385
-4378.491711 -916.864452 1476.216972
-4378.678717 -918.808395 1475.785560
-4378.865724 -920.752337 1475.354148
-4379.052730 -922.696279 1474.922736
-4379.239736 -924.640222 1474.491324
-4379.426743 -926.584164 1474.059911
-4379.613749 -928.528107 1473.628499
-4379.800755 -930.472049 1473.197087
-4379.987762 -932.415991 1472.765675
-4380.174768 -934.359934 1472.334262
-4380.361774 -936.303876 1471.902850
-4380.548781 -938.247819 1471.471438
-4380.735787 -940.191761 1471.040026
-4380.922793 -942.135704 1470.608613
-4381.109800 -944.079646 1470.177201
-4381.296806 -946.023588 1469.745789
-4381.483812 -947.967531 1469.314377
-4381.670819 -949.911473 1468.882964
-4381.857825 -951.855416 1468.451552
-4382.044831 -953.799358 1468.020140
-4382.231838 -955.743300 1467.588728
-4382.418844 -957.687243 1467.157316
-4382.605850 -959.631185 1466.725903
-4382.792857 -961.575128 1466.294491
-4382.979863 -963.519070 1465.863079
-4383.166869 -965.463012 1465.431667
-4383.353876 -967.406955 1465.000254
-4383.540882 -969.350897 1464.568842
-4383.727888 -971.294840 1464.137430
-4383.914895 -973.238782 1463.706018
-4384.101901 -975.182725 1463.274605
-4384.288907 -977.126667 1462.843193
-4384.475914 -979.070609 1462.411781
-4384.662920 -981.014552 1461.980369
-4384.849926 -982.958494 1461.548956
-4385.036933 -984.902437 1461.117544
-4385.223939 -986.846379 1460.686132
-4385.410945 -988.790321 1460.254720
-4385.597952 -990.734264 1459.823308
-4385.784958 -992.678206 1459.391895
-4385.971964 -994.622149 1458.960483
-4386.158971 -996.566091 1458.529071
-4386.345977 -998.510034 1458.097659
-4386.532983 -1000.453976 1457.666246
-4386.719990 -1002.397918 1457.234834
-4386.906996 -1004.341861 1456.803422
-4387.094002 -1006.285803 1456.372010
-4387.281009 -1008.229746 1455.940597
-4387.468015 -1010.173688 1455.509185
-4387.655021 -1012.117630 1455.077773
-4387.842028 -1014.061573 1454.646361
-4388.029034 -1016.005515 1454.214949
-4388.216040 -1017.949458 1453.783536
-4388.403047 -1019.893400 1453.352124
-4388.590053 -1021.837343 1452.920712
-4388.777059 -1023.781285 1452.489300
-4388.964066 -1025.725227 1452.057887
-4389.151072 -1027.669170 1451.626475
-4389.338078 -1029.613112 1451.195063
-4389.525085 -1031.557055 1450.763651
-4389.712091 -1033.500997 1450.332238
-4389.899097 -1035.444939 1449.900826
-4390.086104 -1037.388882 1449.469414
-4390.273110 -1039.332824 1449.038002
-4390.460117 -1041.276767 1448.606589
-4390.647123 -1043.220709 1448.175177
-4390.834129 -1045.164652 1447.743765
-4391.021136 -1047.108594 1447.312353
-4391.208142 -1049.052536 1446.880941
-4391.395148 -1050.996479 1446.449528
-4391.582155 -1052.940421 1446.018116
-4391.769161 -1054.884364 1445.586704
-4391.956167 -1056.828306 1445.155292
-4392.143174 -1058.772248 1444.723879
-4392.330180 -1060.716191 1444.292467
-4392.517186 -1062.660133 1443.861055
-4392.704193 -1064.604076 1443.429643
-4392.891199 -1066.548018 1442.998230
-4393.078205 -1068.491960 1442.566818
-4393.265212 -1070.435903 1442.135406
-4393.452218 -1072.379845 1441.703994
-4393.639224 -1074.323788 1441.272581
-4393.826231 -1076.267730 1440.841169
-4394.013237 -1078.211673 1440.409757
-4394.200243 -1080.155615 1439.978345
-4394.387250 -1082.099557 1439.546933
-4394.574256 -1084.043500 1439.115520
-4394.761262 -1085.987442 1438.684108
-4394.948269 -1087.931385 1438.252696
-4395.135275 -1089.875327 1437.821284
-4395.322281 -1091.819269 1437.389871
-4395.509288 -1093.763212 1436.958459
-4395.696294 -1095.707154 1436.527047
-4395.883300 -1097.651097 1436.095635
-4396.070307 -1099.595039 1435.664222
-4396.257313 -1101.538982 1435.232810
-4396.444319 -1103.482924 1434.801398
-4396.631326 -1105.426866 1434.369986
-4396.818332 -1107.370809 1433.938573
-4397.005338 -1109.314751 1433.507161
-4397.192345 -1111.258694 1433.075749
-4397.379351 -1113.202636 1432.644337
-4397.566357 -1115.146578 1432.212925
-4397.753364 -1117.090521 1431.781512
-4397.940370 -1119.034463 1431.350100
-4398.127376 -1120.978406 1430.918688
-4398.314383 -1122.922348 1430.487276
-4398.501389 -1124.866291 1430.055863
-4398.688395 -1126.810233 1429.624451
-4398.875402 -1128.754175 1429.193039
-4399.062408 -1130.698118 1428.761627
-4399.249414 -1132.642060 1428.330214
-4399.436421 -1134.586003 1427.898802
-4399.623427 -1136.529945 1427.467390
-4399.810433 -1138.473887 1427.035978
-4399.997440 -1140.417830 1426.604565
-4400.184446 -1142.361772 1426.173153
-4400.371452 -1144.305715 1425.741741
-4400.558459 -1146.249657 1425.310329
-4400.745465 -1148.193600 1424.878917
-4400.932471 -1150.137542 1424.447504
-4401.119478 -1152.081484 1424.016092
-4401.306484 -1154.025427 1423.584680
-4401.493490 -1155.969369 1423.153268
-4401.680497 -1157.913312 1422.721855
-4401.867503 -1159.857254 1422.290443
-4402.054509 -1161.801196 1421.859031
-4402.241516 -1163.745139 1421.427619
-4402.428522 -1165.689081 1420.996206
-4402.615528 -1167.633024 1420.564794
-4402.802535 -1169.576966 1420.133382
-4402.989541 -1171.520909 1419.701970
-4403.176547 -1173.464851 1419.270557
-4403.363554 -1175.408793 1418.839145
-4403.550560 -1177.352736 1418.407733
-4403.737566 -1179.296678 1417.976321
-4403.924573 -1181.240621 1417.544909
-4404.111579 -1183.184563 1417.113496
-4404.298585 -1185.128505 1416.682084
-4404.485592 -1187.072448 1416.250672
-4404.672598 -1189.016390 1415.819260
-4404.859604 -1190.960333 1415.387847
-4405.046611 -1192.904275 1414.956435
-4405.233617 -1194.848217 1414.525023
-4405.420623 -1196.792160 1414.093611
-4405.607630 -1198.736102 1413.662198
-4405.794636 -1200.680045 1413.230786
-4405.981642 -1202.623987 1412.799374
-4406.168649 -1204.567930 1412.367962
-4406.355655 -1206.511872 1411.936550
-4406.542661 -1208.455814 1411.505137
-4406.729668 -1210.399757 1411.073725
-4406.916674 -1212.343699 1410.642313
-4407.103680 -1214.287642 1410.210901
-4407.290687 -1216.231584 1409.779488
-4407.477693 -1218.175526 1409.348076
-4407.664700 -1220.119469 1408.916664
-4407.851706 -1222.063411 1408.485252
-4408.038712 -1224.007354 1408.053839
-4408.225719 -1225.951296 1407.622427
-4408.412725 -1227.895239 1407.191015
-4408.599731 -1229.839181 1406.759603
-4408.786738 -1231.783123 1406.328190
-4408.973744 -1233.727066 1405.896778
-4409.160750 -1235.671008 1405.465366
-4409.347757 -1237.614951 1405.033954
-4409.534763 -1239.558893 1404.602542
-4409.721769 -1241.502835 1404.171129
-4409.908776 -1243.446778 1403.739717
-4410.095782 -1245.390720 1403.308305
-4410.282788 -1247.334663 1402.876893
-4410.469795 -1249.278605 1402.445480
-4410.656801 -1251.222548 1402.014068
-4410.843807 -1253.166490 1401.582656
-4411.030814 -1255.110432 1401.151244
-4411.217820 -1257.054375 1400.719831
-4411.404826 -1258.998317 1400.288419
-4411.591833 -1260.942260 1399.857007
-4411.778839 -1262.886202 1399.425595
-4411.965845 -1264.830144 1398.994182
-4412.152852 -1266.774087 1398.562770
-4412.339858 -1268.718029 1398.131358
-4412.526864 -1270.661972 1397.699946
-4412.713871 -1272.605914 1397.268534
-4412.900877 -1274.549857 1396.837121
-4413.087883 -1276.493799 1396.405709
-4413.274890 -1278.437741 1395.974297
-4413.461896 -1280.381684 1395.542885
-4413.648902 -1282.325626 1395.111472
-4413.835909 -1284.269569 1394.680060
-4414.022915 -1286.213511 1394.248648
-4414.209921 -1288.157453 1393.817236
-4414.396928 -1290.101396 1393.385823
-4414.583934 -1292.045338 1392.954411
-4414.770940 -1293.989281 1392.522999
-4414.957947 -1295.933223 1392.091587
-4415.144953 -1297.877165 1391.660174
-4415.331959 -1299.821108 1391.228762
-4415.518966 -1301.765050 1390.797350
-4415.705972 -1303.708993 1390.365938
-4415.892978 -1305.652935 1389.934526
-4416.079985 -1307.596878 1389.503113
-4416.266991 -1309.540820 1389.071701
-4416.453997 -1311.484762 1388.640289
-4416.641004 -1313.428705 1388.208877
-4416.828010 -1315.372647 1387.777464
-4417.015016 -1317.316590 1387.346052
-4417.202023 -1319.260532 1386.914640
-4417.389029 -1321.204474 1386.483228
-4417.576035 -1323.148417 1386.051815
-4417.763042 -1325.092359 1385.620403
-4417.950048 -1327.036302 1385.188991
-4418.137054 -1328.980244 1384.757579
-4418.324061 -1330.924187 1384.326166
-4418.511067 -1332.868129 1383.894754
-4418.698073 -1334.812071 1383.463342
-4418.885080 -1336.756014 1383.031930
-4419.072086 -1338.699956 1382.600518
-4419.259092 -1340.643899 1382.169105
-4419.446099 -1342.587841 1381.737693
-4419.633105 -1344.531783 1381.306281
-4419.820111 -1346.475726 1380.874869
-4420.007118 -1348.419668 1380.443456
-4420.194124 -1350.363611 1380.012044
-4420.381130 -1352.307553 1379.580632
-4420.568137 -1354.251496 1379.149220
-4420.755143 -1356.195438 1378.717807
-4420.942149 -1358.139380 1378.286395
-4421.129156 -1360.083323 1377.854983
-4421.316162 -1362.027265 1377.423571
-4421.503168 -1363.971208 1376.992158
-4421.690175 -1365.915150 1376.560746
-4421.877181 -1367.859092 1376.129334
-4422.064187 -1369.803035 1375.697922
-4422.251194 -1371.746977 1375.266510
-4422.438200 -1373.690920 1374.835097
-4422.625206 -1375.634862 1374.403685
-4422.812213 -1377.578805 1373.972273
-4422.999219 -1379.522747 1373.540861
-4423.186225 -1381.466689 1373.109448
-4423.373232 -1383.410632 1372.678036
-4423.560238 -1385.354574 1372.246624
-4423.747244 -1387.298517 1371.815212
-4423.934251 -1389.242459 1371.383799
-4424.121257 -1391.186401 1370.952387
-4424.308263 -1393.130344 1370.520975
-4424.495270 -1395.074286 1370.089563
-4424.682276 -1397.018229 1369.658150
-4424.869282 -1398.962171 1369.226738
-4425.056289 -1400.906113 1368.795326
-4425.243295 -1402.850056 1368.363914
-4425.430302 -1404.793998 1367.932502
-4425.617308 -1406.737941 1367.501089
-4425.804314 -1408.681883 1367.069677
-4425.991321 -1410.625826 1366.638265
-4426.178327 -1412.569768 1366.206853
-4426.365333 -1414.513710 1365.775440
-4426.552340 -1416.457653 1365.344028
-4426.739346 -1418.401595 1364.912616
-4426.926352 -1420.345538 1364.481204
-4427.113359 -1422.289480 1364.049791
-4427.300365 -1424.233422 1363.618379
-4427.487371 -1426.177365 1363.186967
-4427.674378 -1428.121307 1362.755555
-4427.861384 -1430.065250 1362.324143
-4428.048390 -1432.009192 1361.892730
-4428.235397 -1433.953135 1361.461318
-4428.422403 -1435.897077 1361.029906
-4428.609409 -1437.841019 1360.598494
-4428.796416 -1439.784962 1360.167081
-4428.983422 -1441.728904 1359.735669
-4429.170428 -1443.672847 1359.304257
-4429.357435 -1445.616789 1358.872845
-4429.544441 -1447.560731 1358.441432
-4429.731447 -1449.504674 1358.010020
-4429.918454 -1451.448616 1357.578608
-4430.105460 -1453.392559 1357.147196
-4430.292466 -1455.336501 1356.715783
-4430.479473 -1457.280444 1356.284371
-4430.666479 -1459.224386 1355.852959
-4430.853485 -1461.168328 1355.421547
-4431.040492 -1463.112271 1354.990135
-4431.227498 -1465.056213 1354.558722
-4431.414504 -1467.000156 1354.127310
-4431.601511 -1468.944098 1353.695898
-4431.788517 -1470.888040 1353.264486
-4431.975523 -1472.831983 1352.833073
-4432.162530 -1474.775925 1352.401661
-4432.349536 -1476.719868 1351.970249
-4432.536542 -1478.663810 1351.538837
-4432.723549 -1480.607753 1351.107424
-4432.910555 -1482.551695 1350.676012
-4433.097561 -1484.495637 1350.244600
-4433.284568 -1486.439580 1349.813188
-4433.471574 -1488.383522 1349.381775
-4433.658580 -1490.327465 1348.950363
-4433.845587 -1492.271407 1348.518951
-4434.032593 -1494.215349 1348.087539
-4434.219599 -1496.159292 1347.656127
-4434.406606 -1498.103234 1347.224714
-4434.593612 -1500.047177 1346.793302
-4434.780618 -1501.991119 1346.361890
-4434.967625 -1503.935062 1345.930478
-4435.154631 -1505.879004 1345.499065
-4435.341637 -1507.822946 1345.067653
-4435.528644 -1509.766889 1344.636241
-4435.715650 -1511.710831 1344.204829
-4435.902656 -1513.654774 1343.773416
-4436.089663 -1515.598716 1343.342004
-4436.276669 -1517.542658 1342.910592
-4436.463675 -1519.486601 1342.479180
-4436.650682 -1521.430543 1342.047767
-4436.837688 -1523.374486 1341.616355
-4437.024694 -1525.318428 1341.184943
-4437.211701 -1527.262370 1340.753531
-4437.398707 -1529.206313 1340.322119
-4437.585713 -1531.150255 1339.890706
-4437.772720 -1533.094198 1339.459294
-4437.959726 -1535.038140 1339.027882
-4438.146732 -1536.982083 1338.596470
-4438.333739 -1538.926025 1338.165057
-4438.520745 -1540.869967 1337.733645
-4438.707751 -1542.813910 1337.302233
-4438.894758 -1544.757852 1336.870821
-4439.081764 -1546.701795 1336.439408
-4439.268770 -1548.645737 1336.007996
-4439.455777 -1550.589679 1335.576584
-4439.642783 -1552.533622 1335.145172
-4439.829789 -1554.477564 1334.713759
-4440.016796 -1556.421507 1334.282347
-4440.203802 -1558.365449 1333.850935
-4440.390808 -1560.309392 1333.419523
-4440.577815 -1562.253334 1332.988111
-4440.764821 -1564.197276 1332.556698
-4440.951827 -1566.141219 1332.125286
-4441.138834 -1568.085161 1331.693874
-4441.325840 -1570.029104 1331.262462
-4441.512846 -1571.973046 1330.831049
-4441.699853 -1573.916988 1330.399637
-4441.886859 -1575.860931 1329.968225
-4442.073865 -1577.804873 1329.536813
-4442.260872 -1579.748816 1329.105400
-4442.447878 -1581.692758 1328.673988
-4442.634884 -1583.636701 1328.242576
-4442.821891 -1585.580643 1327.811164
-4443.008897 -1587.524585 1327.379751
-4443.195904 -1589.468528 1326.948339
-4443.382910 -1591.412470 1326.516927
-4443.569916 -1593.356413 1326.085515
-4443.756923 -1595.300355 1325.654103
-4443.943929 -1597.244297 1325.222690
-4444.130935 -1599.188240 1324.791278
-4444.317942 -1601.132182 1324.359866
-4444.504948 -1603.076125 1323.928454
-4444.691954 -1605.020067 1323.497041
-4444.878961 -1606.964010 1323.065629
-4445.065967 -1608.907952 1322.634217
-4445.252973 -1610.851894 1322.202805
-4445.439980 -1612.795837 1321.771392
-4445.626986 -1614.739779 1321.339980
-4445.813992 -1616.683722 1320.908568
-4446.000999 -1618.627664 1320.477156
-4446.188005 -1620.571606 1320.045744
-4446.375011 -1622.515549 1319.614331
-4446.562018 -1624.459491 1319.182919
-4446.749024 -1626.403434 1318.751507
-4446.936030 -1628.347376 1318.320095
-4447.123037 -1630.291318 1317.888682
-4447.310043 -1632.235261 1317.457270
-4447.497049 -1634.179203 1317.025858
-4447.684056 -1636.123146 1316.594446
-4447.871062 -1638.067088 1316.163033
-4448.058068 -1640.011031 1315.731621
-4448.245075 -1641.954973 1315.300209
-4448.432081 -1643.898915 1314.868797
-4448.619087 -1645.842858 1314.437384
-4448.806094 -1647.786800 1314.005972
-4448.993100 -1649.730743 1313.574560
-4449.180106 -1651.674685 1313.143148
-4449.367113 -1653.618627 1312.711736
-4449.554119 -1655.562570 1312.280323
-4449.741125 -1657.506512 1311.848911
-4449.928132 -1659.450455 1311.417499
-4450.115138 -1661.394397 1310.986087
-4450.302144 -1663.338340 1310.554674
-4450.489151 -1665.282282 1310.123262
-4450.676157 -1667.226224 1309.691850
-4450.863163 -1669.170167 1309.260438
-4451.050170 -1671.114109 1308.829025
-4451.237176 -1673.058052 1308.397613
-4451.424182 -1675.001994 1307.966201
-4451.611189 -1676.945936 1307.534789
-4451.798195 -1678.889879 1307.103376
-4451.985201 -1680.833821 1306.671964
-4452.172208 -1682.777764 1306.240552
-4452.359214 -1684.721706 1305.809140
-4452.546220 -1686.665649 1305.377728
-4452.733227 -1688.609591 1304.946315
-4452.920233 -1690.553533 1304.514903
-4453.107239 -1692.497476 1304.083491
-4453.294246 -1694.441418 1303.652079
-4453.481252 -1696.385361 1303.220666
-4453.668258 -1698.329303 1302.789254
-4453.855265 -1700.273245 1302.357842
-4454.042271 -1702.217188 1301.926430
-4454.229277 -1704.161130 1301.495017
-4454.416284 -1706.105073 1301.063605
-4454.603290 -1708.049015 1300.632193
-4454.790296 -1709.992958 1300.200781
-4454.977303 -1711.936900 1299.769368
-4455.164309 -1713.880842 1299.337956
-4455.351315 -1715.824785 1298.906544
-4455.538322 -1717.768727 1298.475132
-4455.725328 -1719.712670 1298.043720
-4455.912334 -1721.656612 1297.612307
-4456.099341 -1723.600554 1297.180895
-4456.286347 -1725.544497 1296.749483
-4456.473353 -1727.488439 1296.318071
-4456.660360 -1729.432382 1295.886658
-4456.847366 -1731.376324 1295.455246
-4457.034372 -1733.320267 1295.023834
-4457.221379 -1735.264209 1294.592422
-4457.408385 -1737.208151 1294.161009
-4457.595391 -1739.152094 1293.729597
-4457.782398 -1741.096036 1293.298185
-4457.969404 -1743.039979 1292.866773
-4458.156410 -1744.983921 1292.435360
-4458.343417 -1746.927863 1292.003948
-4458.530423 -1748.871806 1291.572536
-4458.717429 -1750.815748 1291.141124
-4458.904436 -1752.759691 1290.709712
-4459.091442 -1754.703633 1290.278299
-4459.278448 -1756.647575 1289.846887
-4459.465455 -1758.591518 1289.415475
-4459.652461 -1760.535460 1288.984063
-4459.839467 -1762.479403 1288.552650
-4460.026474 -1764.423345 1288.121238
-4460.213480 -1766.367288 1287.689826
-4460.400486 -1768.311230 1287.258414
-4460.587493 -1770.255172 1286.827001
-4460.774499 -1772.199115 1286.395589
-4460.961506 -1774.143057 1285.964177
-4461.148512 -1776.087000 1285.532765
-4461.335518 -1778.030942 1285.101352
-4461.522525 -1779.974884 1284.669940
-4461.709531 -1781.918827 1284.238528
-4461.896537 -1783.862769 1283.807116
-4462.083544 -1785.806712 1283.375704
-4462.270550 -1787.750654 1282.944291
-4462.457556 -1789.694597 1282.512879
-4462.644563 -1791.638539 1282.081467
-4462.831569 -1793.582481 1281.650055
-4463.018575 -1795.526424 1281.218642
-4463.205582 -1797.470366 1280.787230
-4463.392588 -1799.414309 1280.355818
-4463.579594 -1801.358251 1279.924406
-4463.766601 -1803.302193 1279.492993
-4463.953607 -1805.246136 1279.061581
-4464.140613 -1807.190078 1278.630169
-4464.327620 -1809.134021 1278.198757
-4464.514626 -1811.077963 1277.767344
-4464.701632 -1813.021906 1277.335932
-4464.888639 -1814.965848 1276.904520
-4465.075645 -1816.909790 1276.473108
-4465.262651 -1818.853733 1276.041696
-4465.449658 -1820.797675 1275.610283
-4465.636664 -1822.741618 1275.178871
-4465.823670 -1824.685560 1274.747459
-4466.010677 -1826.629502 1274.316047
-4466.197683 -1828.573445 1273.884634
-4466.384689 -1830.517387 1273.453222
-4466.571696 -1832.461330 1273.021810
-4466.758702 -1834.405272 1272.590398
-4466.945708 -1836.349215 1272.158985
-4467.132715 -1838.293157 1271.727573
-4467.319721 -1840.237099 1271.296161
-4467.506727 -1842.181042 1270.864749
-4467.693734 -1844.124984 1270.433337
-4467.880740 -1846.068927 1270.001924
-4468.067746 -1848.012869 1269.570512
-4468.254753 -1849.956811 1269.139100
-4468.441759 -1851.900754 1268.707688
-4468.628765 -1853.844696 1268.276275
-4468.815772 -1855.788639 1267.844863
-4469.002778 -1857.732581 1267.413451
-4469.189784 -1859.676523 1266.982039
-4469.376791 -1861.620466 1266.550626
-4469.563797 -1863.564408 1266.119214
-4469.750803 -1865.508351 1265.687802
-4469.937810 -1867.452293 1265.256390
-4470.124816 -1869.396236 1264.824977
-4470.311822 -1871.340178 1264.393565
-4470.498829 -1873.284120 1263.962153
-4470.685835 -1875.228063 1263.530741
-4470.872841 -1877.172005 1263.099329
-4471.059848 -1879.115948 1262.667916
-4471.246854 -1881.059890 1262.236504
-4471.433860 -1883.003832 1261.805092
-4471.620867 -1884.947775 1261.373680
-4471.807873 -1886.891717 1260.942267
-4471.994879 -1888.835660 1260.510855
-4472.181886 -1890.779602 1260.079443
-4472.368892 -1892.723545 1259.648031
-4472.555898 -1894.667487 1259.216618
-4472.742905 -1896.611429 1258.785206
-4472.929911 -1898.555372 1258.353794
-4473.116917 -1900.499314 1257.922382
-4473.303924 -1902.443257 1257.490969
-4473.490930 -1904.387199 1257.059557
-4473.677936 -1906.331141 1256.628145
-4473.864943 -1908.275084 1256.196733
-4474.051949 -1910.219026 1255.765321
-4474.238955 -1912.162969 1255.333908
-4474.425962 -1914.106911 1254.902496
-4474.612968 -1916.050854 1254.471084
-4474.799974 -1917.994796 1254.039672
-4474.986981 -1919.938738 1253.608259
-4475.173987 -1921.882681 1253.176847
-4475.360993 -1923.826623 1252.745435
-4475.548000 -1925.770566 1252.314023
-4475.735006 -1927.714508 1251.882610
-4475.922012 -1929.658450 1251.451198
-4476.109019 -1931.602393 1251.019786
-4476.296025 -1933.546335 1250.588374
-4476.483031 -1935.490278 1250.156961
-4476.670038 -1937.434220 1249.725549
-4476.857044 -1939.378163 1249.294137
-4477.044050 -1941.322105 1248.862725
-4477.231057 -1943.266047 1248.431313
-4477.418063 -1945.209990 1247.999900
-4477.605069 -1947.153932 1247.568488
-4477.792076 -1949.097875 1247.137076
-4477.979082 -1951.041817 1246.705664
-4478.166088 -1952.985759 1246.274251
-4478.353095 -1954.929702 1245.842839
-4478.540101 -1956.873644 1245.411427
-4478.727108 -1958.817587 1244.980015
-4478.914114 -1960.761529 1244.548602
-4479.101120 -1962.705471 1244.117190
-4479.288127 -1964.649414 1243.685778
-4479.475133 -1966.593356 1243.254366
-4479.662139 -1968.537299 1242.822953
-4479.849146 -1970.481241 1242.391541
-4480.036152 -1972.425184 1241.960129
-4480.223158 -1974.369126 1241.528717
-4480.410165 -1976.313068 1241.097305
-4480.597171 -1978.257011 1240.665892
-4480.784177 -1980.200953 1240.234480
-4480.971184 -1982.144896 1239.803068
-4481.158190 -1984.088838 1239.371656
-4481.345196 -1986.032780 1238.940243
-4481.532203 -1987.976723 1238.508831
-4481.719209 -1989.920665 1238.077419
-4481.906215 -1991.864608 1237.646007
-4482.093222 -1993.808550 1237.214594
-4482.280228 -1995.752493 1236.783182
-4482.467234 -1997.696435 1236.351770
-4482.654241 -1999.640377 1235.920358
-4482.841247 -2001.584320 1235.488945
-4483.028253 -2003.528262 1235.057533
-4483.215260 -2005.472205 1234.626121
-4483.402266 -2007.416147 1234.194709
-4483.589272 -2009.360089 1233.763297
-4483.776279 -2011.304032 1233.331884
-4483.963285 -2013.247974 1232.900472
-4484.150291 -2015.191917 1232.469060
-4484.337298 -2017.135859 1232.037648
-4484.524304 -2019.079802 1231.606235
-4484.711310 -2021.023744 1231.174823
-4484.898317 -2022.967686 1230.743411
-4485.085323 -2024.911629 1230.311999
-4485.272329 -2026.855571 1229.880586
-4485.459336 -2028.799514 1229.449174
-4485.646342 -2030.743456 1229.017762
-4485.833348 -2032.687398 1228.586350
-4486.020355 -2034.631341 1228.154938
-4486.207361 -2036.575283 1227.723525
-4486.394367 -2038.519226 1227.292113
-4486.581374 -2040.463168 1226.860701
-4486.768380 -2042.407111 1226.429289
-4486.955386 -2044.351053 1225.997876
-4487.142393 -2046.294995 1225.566464
-4487.329399 -2048.238938 1225.135052
-4487.516405 -2050.182880 1224.703640
-4487.703412 -2052.126823 1224.272227
-4487.890418 -2054.070765 1223.840815
-4488.077424 -2056.014707 1223.409403
-4488.264431 -2057.958650 1222.977991
-4488.451437 -2059.902592 1222.546578
-4488.638443 -2061.846535 1222.115166
-4488.825450 -2063.790477 1221.683754
-4489.012456 -2065.734420 1221.252342
-4489.199462 -2067.678362 1220.820930
-4489.386469 -2069.622304 1220.389517
-4489.573475 -2071.566247 1219.958105
-4489.760481 -2073.510189 1219.526693
-4489.947488 -2075.454132 1219.095281
-4490.134494 -2077.398074 1218.663868
-4490.321500 -2079.342016 1218.232456
-4490.508507 -2081.285959 1217.801044
-4490.695513 -2083.229901 1217.369632
-4490.882519 -2085.173844 1216.938219
-4491.069526 -2087.117786 1216.506807
-4491.256532 -2089.061728 1216.075395
-4491.443538 -2091.005671 1215.643983
-4491.630545 -2092.949613 1215.212570
-4491.817551 -2094.893556 1214.781158
-4492.004557 -2096.837498 1214.349746
-4492.191564 -2098.781441 1213.918334
-4492.378570 -2100.725383 1213.486922
-4492.565576 -2102.669325 1213.055509
-4492.752583 -2104.613268 1212.624097
-4492.939589 -2106.557210 1212.192685
-4493.126595 -2108.501153 1211.761273
-4493.313602 -2110.445095 1211.329860
-4493.500608 -2112.389037 1210.898448
-4493.687614 -2114.332980 1210.467036
-4493.874621 -2116.276922 1210.035624
-4494.061627 -2118.220865 1209.604211
-4494.248633 -2120.164807 1209.172799
-4494.435640 -2122.108750 1208.741387
-4494.622646 -2124.052692 1208.309975
-4494.809652 -2125.996634 1207.878562
-4494.996659 -2127.940577 1207.447150
-4495.183665 -2129.884519 1207.015738
-4495.370671 -2131.828462 1206.584326
-4495.557678 -2133.772404 1206.152914
-4495.744684 -2135.716346 1205.721501
-4495.931690 -2137.660289 1205.290089
-4496.118697 -2139.604231 1204.858677
-4496.305703 -2141.548174 1204.427265
-4496.492710 -2143.492116 1203.995852
-4496.679716 -2145.436059 1203.564440
-4496.866722 -2147.380001 1203.133028
-4497.053729 -2149.323943 1202.701616
-4497.240735 -2151.267886 1202.270203
-4497.427741 -2153.211828 1201.838791
-4497.614748 -2155.155771 1201.407379
-4497.801754 -2157.099713 1200.975967
-4497.988760 -2159.043655 1200.544554
-4498.175767 -2160.987598 1200.113142
-4498.362773 -2162.931540 1199.681730
-4498.549779 -2164.875483 1199.250318
-4498.736786 -2166.819425 1198.818906
-4498.923792 -2168.763368 1198.387493
-4499.110798 -2170.707310 1197.956081
-4499.297805 -2172.651252 1197.524669
-4499.484811 -2174.595195 1197.093257
-4499.671817 -2176.539137 1196.661844
-4499.858824 -2178.483080 1196.230432
-4500.045830 -2180.427022 1195.799020
-4500.232836 -2182.370964 1195.367608
-4500.419843 -2184.314907 1194.936195
-4500.606849 -2186.258849 1194.504783
-4500.793855 -2188.202792 1194.073371
-4500.980862 -2190.146734 1193.641959
-4501.167868 -2192.090676 1193.210546
-4501.354874 -2194.034619 1192.779134
-4501.541881 -2195.978561 1192.347722
-4501.728887 -2197.922504 1191.916310
-4501.915893 -2199.866446 1191.484898
-4502.102900 -2201.810389 1191.053485
-4502.289906 -2203.754331 1190.622073
-4502.476912 -2205.698273 1190.190661
-4502.663919 -2207.642216 1189.759249
-4502.850925 -2209.586158 1189.327836
-4503.037931 -2211.530101 1188.896424
-4503.224938 -2213.474043 1188.465012
-4503.411944 -2215.417985 1188.033600
-4503.598950 -2217.361928 1187.602187
-4503.785957 -2219.305870 1187.170775
-4503.972963 -2221.249813 1186.739363
-4504.159969 -2223.193755 1186.307951
-4504.346976 -2225.137698 1185.876538
-4504.533982 -2227.081640 1185.445126
-4504.720988 -2229.025582 1185.013714
-4504.907995 -2230.969525 1184.582302
-4505.095001 -2232.913467 1184.150890
-4505.282007 -2234.857410 1183.719477
-4505.469014 -2236.801352 1183.288065
-4505.656020 -2238.745294 1182.856653
-4505.843026 -2240.689237 1182.425241
-4506.030033 -2242.633179 1181.993828
-4506.217039 -2244.577122 1181.562416
-4506.404045 -2246.521064 1181.131004
-4506.591052 -2248.465007 1180.699592
-4506.778058 -2250.408949 1180.268179
-4506.965064 -2252.352891 1179.836767
-4507.152071 -2254.296834 1179.405355
-4507.339077 -2256.240776 1178.973943
-4507.526083 -2258.184719 1178.542531
-4507.713090 -2260.128661 1178.111118
-4507.900096 -2262.072603 1177.679706
-4508.087102 -2264.016546 1177.248294
-4508.274109 -2265.960488 1176.816882
-4508.461115 -2267.904431 1176.385469
-4508.648121 -2269.848373 1175.954057
-4508.835128 -2271.792316 1175.522645
-4509.022134 -2273.736258 1175.091233
-4509.209140 -2275.680200 1174.659820
-4509.396147 -2277.624143 1174.228408
-4509.583153 -2279.568085 1173.796996
-4509.770159 -2281.512028 1173.365584
-4509.957166 -2283.455970 1172.934171
-4510.144172 -2285.399912 1172.502759
-4510.331178 -2287.343855 1172.071347
-4510.518185 -2289.287797 1171.639935
-4510.705191 -2291.231740 1171.208523
-4510.892197 -2293.175682 1170.777110
-4511.079204 -2295.119624 1170.345698
-4511.266210 -2297.063567 1169.914286
-4511.453216 -2299.007509 1169.482874
-4511.640223 -2300.951452 1169.051461
-4511.827229 -2302.895394 1168.620049
-4512.014235 -2304.839337 1168.188637
-4512.201242 -2306.783279 1167.757225
-4512.388248 -2308.727221 1167.325812
-4512.575254 -2310.671164 1166.894400
-4512.762261 -2312.615106 1166.462988
-4512.949267 -2314.559049 1166.031576
-4513.136273 -2316.502991 1165.600163
-4513.323280 -2318.446933 1165.168751
-4513.510286 -2320.390876 1164.737339
-4513.697292 -2322.334818 1164.305927
-4513.884299 -2324.278761 1163.874515
-4514.071305 -2326.222703 1163.443102
-4514.258312 -2328.166646 1163.011690
-4514.445318 -2330.110588 1162.580278
-4514.632324 -2332.054530 1162.148866
-4514.819331 -2333.998473 1161.717453
-4515.006337 -2335.942415 1161.286041
-4515.193343 -2337.886358 1160.854629
-4515.380350 -2339.830300 1160.423217
-4515.567356 -2341.774242 1159.991804
-4515.754362 -2343.718185 1159.560392
-4515.941369 -2345.662127 1159.128980
-4516.128375 -2347.606070 1158.697568
-4516.315381 -2349.550012 1158.266155
-4516.502388 -2351.493955 1157.834743
-4516.689394 -2353.437897 1157.403331
-4516.876400 -2355.381839 1156.971919
-4517.063407 -2357.325782 1156.540507
-4517.250413 -2359.269724 1156.109094
-4517.437419 -2361.213667 1155.677682
-4517.624426 -2363.157609 1155.246270
-4517.811432 -2365.101551 1154.814858
-4517.998438 -2367.045494 1154.383445
-4518.185445 -2368.989436 1153.952033
-4518.372451 -2370.933379 1153.520621
-4518.559457 -2372.877321 1153.089209
-4518.746464 -2374.821264 1152.657796
-4518.933470 -2376.765206 1152.226384
-4519.120476 -2378.709148 1151.794972
-4519.307483 -2380.653091 1151.363560
-4519.494489 -2382.597033 1150.932147
-4519.681495 -2384.540976 1150.500735
-4519.868502 -2386.484918 1150.069323
-4520.055508 -2388.428860 1149.637911
-4520.242514 -2390.372803 1149.206499
-4520.429521 -2392.316745 1148.775086
-4520.616527 -2394.260688 1148.343674
-4520.803533 -2396.204630 1147.912262
-4520.990540 -2398.148573 1147.480850
-4521.177546 -2400.092515 1147.049437
-4521.364552 -2402.036457 1146.618025
-4521.551559 -2403.980400 1146.186613
-4521.738565 -2405.924342 1145.755201
-4521.925571 -2407.868285 1145.323788
-4522.112578 -2409.812227 1144.892376
-4522.299584 -2411.756169 1144.460964
-4522.486590 -2413.700112 1144.029552
-4522.673597 -2415.644054 1143.598139
-4522.860603 -2417.587997 1143.166727
-4523.047609 -2419.531939 1142.735315
-4523.234616 -2421.475881 1142.303903
-4523.421622 -2423.419824 1141.872491
-4523.608628 -2425.363766 1141.441078
-4523.795635 -2427.307709 1141.009666
-4523.982641 -2429.251651 1140.578254
-4524.169647 -2431.195594 1140.146842
-4524.356654 -2433.139536 1139.715429
-4524.543660 -2435.083478 1139.284017
-4524.730666 -2437.027421 1138.852605
-4524.917673 -2438.971363 1138.421193
-4525.104679 -2440.915306 1137.989780
-4525.291685 -2442.859248 1137.558368
-4525.478692 -2444.803190 1137.126956
-4525.665698 -2446.747133 1136.695544
-4525.852704 -2448.691075 1136.264131
-4526.039711 -2450.635018 1135.832719
-4526.226717 -2452.578960 1135.401307
-4526.413723 -2454.522903 1134.969895
-4526.600730 -2456.466845 1134.538483
-4526.787736 -2458.410787 1134.107070
-4526.974742 -2460.354730 1133.675658
-4527.161749 -2462.298672 1133.244246
-4527.348755 -2464.242615 1132.812834
-4527.535761 -2466.186557 1132.381421
-4527.722768 -2468.130499 1131.950009
-4527.909774 -2470.074442 1131.518597
-4528.096780 -2472.018384 1131.087185
-4528.283787 -2473.962327 1130.655772
-4528.470793 -2475.906269 1130.224360
-4528.657799 -2477.850212 1129.792948
-4528.844806 -2479.794154 1129.361536
-4529.031812 -2481.738096 1128.930124
-4529.218818 -2483.682039 1128.498711
-4529.405825 -2485.625981 1128.067299
-4529.592831 -2487.569924 1127.635887
-4529.779837 -2489.513866 1127.204475
-4529.966844 -2491.457808 1126.773062
-4530.153850 -2493.401751 1126.341650
-4530.340856 -2495.345693 1125.910238
-4530.527863 -2497.289636 1125.478826
-4530.714869 -2499.233578 1125.047413
-4530.901875 -2501.177521 1124.616001
-4531.088882 -2503.121463 1124.184589
-4531.275888 -2505.065405 1123.753177
-4531.462894 -2507.009348 1123.321764
-4531.649901 -2508.953290 1122.890352
-4531.836907 -2510.897233 1122.458940
-4532.023914 -2512.841175 1122.027528
-4532.210920 -2514.785117 1121.596116
-4532.397926 -2516.729060 1121.164703
-4532.584933 -2518.673002 1120.733291
-4532.771939 -2520.616945 1120.301879
-4532.958945 -2522.560887 1119.870467
-4533.145952 -2524.504829 1119.439054
-4533.332958 -2526.448772 1119.007642
-4533.519964 -2528.392714 1118.576230
-4533.706971 -2530.336657 1118.144818
-4533.893977 -2532.280599 1117.713405
-4534.080983 -2534.224542 1117.281993
-4534.267990 -2536.168484 1116.850581
-4534.454996 -2538.112426 1116.419169
-4534.642002 -2540.056369 1115.987756
-4534.829009 -2542.000311 1115.556344
-4535.016015 -2543.944254 1115.124932
